ncols   409
nrows   32
xllcorner    12.411169
yllcorner    43.253332
cellsize    0.003003
NODATA_value -9999
-9999.0 -9999.0 -9999.0 -9999.0 -9999.0 -9999.0 -9999.0 -9999.0 -9999.0 -9999.0 -9999.0 -9999.0 -9999.0 -9999.0 -9999.0 -9999.0 -9999.0 -9999.0 -9999.0 -9999.0 -9999.0 -9999.0 -9999.0 -9999.0 -9999.0 -9999.0 -9999.0 -9999.0 -9999.0 -9999.0 -9999.0 -9999.0 -9999.0 -9999.0 -9999.0 -9999.0 -9999.0 -9999.0 -9999.0 -9999.0 -9999.0 -9999.0 -9999.0 -9999.0 -9999.0 -9999.0 -9999.0 -9999.0 -9999.0 -9999.0 -9999.0 -9999.0 -9999.0 -9999.0 -9999.0 -9999.0 -9999.0 -9999.0 -9999.0 -9999.0 -9999.0 -9999.0 -9999.0 -9999.0 -9999.0 -9999.0 -9999.0 -9999.0 -9999.0 -9999.0 -9999.0 -9999.0 -9999.0 -9999.0 -9999.0 -9999.0 -9999.0 -9999.0 -9999.0 -9999.0 -9999.0 -9999.0 -9999.0 -9999.0 -9999.0 -9999.0 -9999.0 -9999.0 -9999.0 -9999.0 -9999.0 -9999.0 -9999.0 -9999.0 -9999.0 -9999.0 -9999.0 -9999.0 -9999.0 -9999.0 -9999.0 -9999.0 -9999.0 -9999.0 -9999.0 -9999.0 -9999.0 -9999.0 -9999.0 -9999.0 -9999.0 -9999.0 -9999.0 -9999.0 -9999.0 -9999.0 -9999.0 -9999.0 -9999.0 -9999.0 -9999.0 1145.5 1095.8 1072.8 1064.2 984.6 831.4 684.6 621.4 582.2 539.1 507.3 477.9 459.4 450.7 462.9 484.2 474.5 466.9 447.7 437.9 415.9 396.1 393.3 395.9 423.9 423.5 400.7 382.3 373.5 366.2 363.8 379.1 381.5 359.8 343.7 344.4 352.5 345.5 336.0 332.1 329.0 326.2 334.6 362.1 340.8 316.3 323.8 333.3 364.1 371.8 376.7 376.3 364.5 349.7 326.7 289.9 280.3 276.6 275.2 281.9 311.0 348.1 331.7 320.2 362.6 370.4 367.5 352.0 363.5 337.2 308.9 284.6 253.8 246.8 251.4 291.6 396.9 494.7 460.5 507.8 695.7 833.8 882.9 961.9 1035.4 1074.8 1056.2 986.4 915.4 811.2 730.5 841.4 949.3 1038.3 1051.3 1019.8 950.5 869.7 815.6 768.5 722.1 687.2 632.7 600.2 590.5 549.5 540.0 540.5 530.1 507.5 501.7 489.2 474.4 470.6 462.2 443.3 443.6 471.2 485.6 487.8 501.8 504.0 477.0 419.6 395.9 386.1 354.7 395.7 440.5 450.7 454.4 470.4 510.7 559.1 600.4 603.5 578.2 610.0 664.7 685.5 689.4 695.8 703.1 717.0 728.2 770.0 806.7 800.7 793.0 782.1 751.3 707.5 654.5 586.4 536.3 498.4 479.5 476.8 462.6 432.5 413.9 402.5 392.9 383.4 376.5 371.3 366.9 362.4 356.7 352.6 348.5 343.7 339.1 334.2 325.6 309.4 296.9 294.0 284.8 277.2 270.4 266.9 265.6 265.3 263.1 260.6 251.1 241.5 250.9 254.3 256.6 254.7 248.6 232.9 213.1 219.9 216.1 221.2 232.3 243.7 258.5 266.8 271.7 257.6 268.6 277.9 261.0 244.1 226.4 207.7 191.1 188.3 187.4 179.9 176.0 174.9 174.6 167.8 163.6 161.2 157.8 154.9 152.1 149.1 146.6 144.5 143.1 141.7 140.4 138.5 125.5  87.7 103.2 130.5 133.8 131.4 131.7 133.0 139.1 150.9 165.1 184.8 186.1 183.6 160.5 148.5 138.1 127.5 133.0 151.5 159.9 167.6 173.8 173.9 145.8 134.8 145.1 164.3 177.7 169.2 169.2 199.8 234.2 258.5 253.8 223.1 192.2 191.2 210.1 205.1 199.5 204.1 212.5 214.4 200.3 196.3 190.3 183.3 177.6 173.0 169.9 156.9 140.7 122.3 109.9 102.1  98.6  94.1
-9999.0 -9999.0 -9999.0 -9999.0 -9999.0 -9999.0 -9999.0 -9999.0 -9999.0 -9999.0 -9999.0 -9999.0 -9999.0 -9999.0 -9999.0 -9999.0 -9999.0 -9999.0 -9999.0 -9999.0 -9999.0 -9999.0 -9999.0 -9999.0 -9999.0 -9999.0 -9999.0 -9999.0 -9999.0 -9999.0 -9999.0 -9999.0 -9999.0 -9999.0 -9999.0 -9999.0 -9999.0 -9999.0 -9999.0 -9999.0 -9999.0 -9999.0 -9999.0 -9999.0 -9999.0 -9999.0 -9999.0 -9999.0 -9999.0 -9999.0 -9999.0 -9999.0 -9999.0 -9999.0 -9999.0 -9999.0 -9999.0 -9999.0 -9999.0 -9999.0 -9999.0 -9999.0 -9999.0 -9999.0 -9999.0 -9999.0 -9999.0 -9999.0 -9999.0 -9999.0 -9999.0 -9999.0 -9999.0 -9999.0 -9999.0 -9999.0 -9999.0 -9999.0 -9999.0 -9999.0 -9999.0 -9999.0 -9999.0 -9999.0 -9999.0 -9999.0 -9999.0 -9999.0 -9999.0 -9999.0 -9999.0 -9999.0 -9999.0 -9999.0 -9999.0 -9999.0 -9999.0 -9999.0 -9999.0 -9999.0 -9999.0 -9999.0 -9999.0 -9999.0 -9999.0 -9999.0 -9999.0 -9999.0 -9999.0 -9999.0 -9999.0 -9999.0 -9999.0 -9999.0 -9999.0 -9999.0 -9999.0 -9999.0 -9999.0 -9999.0 -9999.0 -9999.0 -9999.0 1154.8 1062.4 928.0 776.8 648.9 568.0 575.9 572.5 539.9 516.8 525.7 508.1 504.8 495.3 472.2 463.0 464.5 454.7 450.7 440.2 436.4 407.1 394.7 381.4 376.1 387.1 393.7 372.2 392.0 410.1 401.6 396.3 386.0 366.3 357.0 354.5 363.2 364.8 359.4 365.1 355.7 330.0 321.4 335.8 369.9 373.8 379.6 389.9 395.3 373.9 328.5 310.3 306.4 302.8 312.0 316.9 296.4 283.2 269.1 293.3 296.0 305.0 322.2 299.1 298.3 307.1 271.7 262.4 286.3 289.8 273.2 251.8 268.6 285.7 360.4 391.5 403.0 494.2 575.9 696.4 810.0 916.9 994.4 1033.0 1042.7 1011.9 934.1 819.3 752.4 860.5 981.0 1033.8 1014.8 972.7 869.5 784.3 768.3 788.0 805.1 769.3 677.6 656.8 662.8 675.9 684.4 684.7 647.4 549.3 494.1 478.4 472.7 470.0 464.5 485.3 517.4 503.9 477.9 465.6 462.4 451.2 436.9 437.5 485.8 459.0 369.7 387.0 445.6 470.0 493.0 497.1 512.1 552.4 583.1 592.7 585.2 588.1 621.5 657.5 682.2 679.4 661.1 644.4 657.5 693.2 712.0 705.5 730.3 744.9 746.2 736.7 704.4 657.0 603.9 534.1 468.9 468.0 455.0 420.2 397.7 384.8 378.5 374.0 371.8 364.9 361.1 361.2 357.3 352.1 347.2 340.6 328.3 318.5 315.2 304.9 290.4 279.7 272.8 269.7 265.6 260.8 256.1 250.7 248.3 250.0 248.7 240.0 238.2 241.5 244.8 250.5 247.0 236.8 224.3 206.7 210.0 222.7 233.2 242.3 240.5 244.8 253.3 240.0 257.2 265.7 253.8 236.5 220.6 208.3 200.9 194.0 187.4 182.6 182.2 177.1 173.3 168.7 160.1 157.2 153.1 151.6 150.9 148.2 146.8 144.3 142.1 141.0 138.9 135.0 115.7  87.2 116.2 134.7 136.3 138.4 143.6 157.1 191.0 188.1 173.0 169.0 171.6 170.2 149.6 136.8 138.1 142.2 133.8 140.8 153.6 164.3 174.9 190.1 175.9 162.1 154.8 157.5 172.4 205.7 227.3 249.1 285.3 318.0 300.1 272.4 255.4 245.9 245.3 230.7 214.1 217.4 224.8 199.1 170.4 175.2 175.4 166.0 160.8 149.6 144.5 139.8 129.6 113.3  89.2  67.6  66.4  70.2
-9999.0 -9999.0 -9999.0 -9999.0 -9999.0 -9999.0 -9999.0 -9999.0 -9999.0 -9999.0 -9999.0 -9999.0 -9999.0 -9999.0 -9999.0 -9999.0 -9999.0 -9999.0 -9999.0 -9999.0 -9999.0 -9999.0 -9999.0 -9999.0 -9999.0 -9999.0 -9999.0 -9999.0 -9999.0 -9999.0 -9999.0 -9999.0 -9999.0 -9999.0 -9999.0 -9999.0 -9999.0 -9999.0 -9999.0 -9999.0 -9999.0 -9999.0 -9999.0 -9999.0 -9999.0 -9999.0 -9999.0 -9999.0 -9999.0 -9999.0 -9999.0 -9999.0 -9999.0 -9999.0 -9999.0 -9999.0 -9999.0 -9999.0 -9999.0 -9999.0 -9999.0 -9999.0 -9999.0 -9999.0 -9999.0 -9999.0 -9999.0 -9999.0 -9999.0 -9999.0 -9999.0 -9999.0 -9999.0 -9999.0 -9999.0 -9999.0 -9999.0 -9999.0 -9999.0 -9999.0 -9999.0 -9999.0 -9999.0 -9999.0 -9999.0 -9999.0 -9999.0 -9999.0 -9999.0 -9999.0 -9999.0 -9999.0 -9999.0 -9999.0 -9999.0 -9999.0 -9999.0 -9999.0 -9999.0 -9999.0 -9999.0 -9999.0 -9999.0 -9999.0 -9999.0 -9999.0 -9999.0 -9999.0 -9999.0 -9999.0 -9999.0 -9999.0 -9999.0 -9999.0 -9999.0 -9999.0 -9999.0 -9999.0 -9999.0 -9999.0 -9999.0 -9999.0 -9999.0 -9999.0 1056.0 981.5 910.6 809.1 686.9 746.0 745.6 667.4 610.0 566.3 533.0 501.8 493.1 474.9 443.2 458.6 476.4 466.5 436.9 414.6 404.2 398.7 387.6 395.5 429.6 407.3 378.1 408.7 433.9 425.3 418.5 410.5 409.2 396.9 394.2 388.7 387.8 390.0 380.7 334.6 332.7 364.6 374.9 380.2 390.3 405.8 408.4 384.8 348.3 329.7 338.0 359.7 360.7 354.3 347.9 337.8 323.7 284.0 268.1 272.0 291.0 275.1 260.8 259.3 260.5 254.9 315.9 400.3 396.6 301.0 256.0 298.3 293.6 309.8 326.7 380.9 430.5 466.4 555.8 697.2 820.9 941.4 1031.8 1063.3 1018.7 960.0 863.9 802.1 905.6 998.8 1016.8 1023.5 996.3 907.1 861.2 921.9 929.0 888.3 813.5 796.7 851.9 862.2 833.6 778.2 695.1 578.0 526.4 532.2 541.7 540.6 520.9 512.6 544.8 541.1 520.4 501.7 496.3 484.8 470.3 481.1 514.2 522.6 483.3 385.5 363.6 399.9 426.7 470.7 457.4 443.0 464.4 488.1 531.4 537.7 558.3 608.1 669.1 726.1 750.9 728.4 692.9 650.6 630.2 654.1 692.6 735.5 741.3 719.9 680.7 626.6 588.8 556.6 495.9 421.7 429.3 388.8 351.5 330.3 320.7 313.1 310.6 307.1 297.6 291.0 296.7 300.5 292.2 290.3 294.8 299.4 301.2 304.2 298.5 292.8 284.5 278.4 273.5 268.3 265.0 261.8 256.9 251.4 247.2 241.1 237.1 232.8 228.5 225.7 230.1 235.6 239.1 234.0 212.1 203.0 215.3 224.3 227.8 221.2 229.4 239.5 233.4 236.6 243.7 242.2 240.9 239.1 232.4 218.8 201.1 187.6 180.4 176.3 176.1 171.4 159.1 155.3 154.7 154.0 152.4 149.1 146.9 137.8 133.6 132.2 131.4 116.2 102.5  91.2  95.8 134.0 155.5 173.7 193.0 198.2 214.2 233.6 225.4 201.4 174.7 153.8 145.9 148.2 159.8 173.0 167.5 144.4 144.3 151.1 151.0 162.0 183.0 194.6 209.2 213.0 206.4 209.4 241.2 275.6 265.5 264.0 283.8 282.3 292.6 282.7 260.3 241.5 220.4 198.5 179.4 190.7 181.7 152.0 162.0 157.4 145.4 145.0 118.6  96.2  82.4  72.1  70.3  74.2  93.3 126.4 136.2
-9999.0 -9999.0 -9999.0 -9999.0 -9999.0 -9999.0 -9999.0 -9999.0 -9999.0 -9999.0 -9999.0 -9999.0 -9999.0 -9999.0 -9999.0 -9999.0 -9999.0 -9999.0 -9999.0 -9999.0 -9999.0 -9999.0 -9999.0 -9999.0 -9999.0 -9999.0 -9999.0 -9999.0 -9999.0 -9999.0 -9999.0 -9999.0 -9999.0 -9999.0 -9999.0 -9999.0 -9999.0 -9999.0 -9999.0 -9999.0 -9999.0 -9999.0 -9999.0 -9999.0 -9999.0 -9999.0 -9999.0 -9999.0 -9999.0 -9999.0 -9999.0 -9999.0 -9999.0 -9999.0 -9999.0 -9999.0 -9999.0 -9999.0 -9999.0 -9999.0 -9999.0 -9999.0 -9999.0 -9999.0 -9999.0 -9999.0 -9999.0 -9999.0 -9999.0 -9999.0 -9999.0 -9999.0 -9999.0 -9999.0 -9999.0 -9999.0 -9999.0 -9999.0 -9999.0 -9999.0 -9999.0 -9999.0 -9999.0 -9999.0 -9999.0 -9999.0 -9999.0 -9999.0 -9999.0 -9999.0 -9999.0 -9999.0 -9999.0 -9999.0 -9999.0 -9999.0 -9999.0 -9999.0 -9999.0 -9999.0 -9999.0 -9999.0 -9999.0 -9999.0 -9999.0 -9999.0 -9999.0 -9999.0 -9999.0 -9999.0 -9999.0 -9999.0 -9999.0 -9999.0 -9999.0 -9999.0 -9999.0 -9999.0 -9999.0 -9999.0 -9999.0 -9999.0 -9999.0 -9999.0 -9999.0 1104.6 1083.7 963.5 853.1 876.0 843.5 729.3 634.0 561.1 500.7 463.6 457.4 447.2 431.9 427.9 441.6 428.7 417.5 425.2 423.7 424.2 435.8 457.2 453.2 395.3 408.7 436.5 452.5 449.1 428.7 432.7 446.4 421.7 424.5 425.4 421.5 405.6 357.6 332.3 363.9 389.1 386.8 393.7 414.0 427.4 401.7 370.0 382.8 382.4 371.6 390.0 398.1 387.8 393.4 398.9 392.2 373.1 311.6 270.6 262.5 267.7 304.7 311.4 303.9 306.5 359.7 375.2 358.4 275.8 260.4 309.8 335.3 342.0 334.2 342.2 368.4 448.9 549.0 702.3 777.1 884.1 994.3 1080.5 1102.3 1074.4 981.9 880.4 922.6 1015.9 1069.5 1104.3 1095.9 1034.8 1009.8 1043.6 994.4 914.6 893.0 890.1 858.1 804.5 729.2 638.4 571.1 536.5 612.0 669.5 623.8 571.8 534.3 517.8 536.3 554.6 564.9 536.7 531.5 521.4 522.0 509.4 496.7 479.6 455.3 393.0 364.8 408.0 419.5 417.7 442.9 473.2 479.2 505.3 527.9 540.2 569.7 608.0 633.2 682.8 738.3 771.3 771.6 683.1 612.9 629.1 702.6 729.9 714.8 636.0 533.0 450.1 411.1 397.9 377.8 356.8 353.9 335.6 339.7 350.8 345.5 332.8 329.3 333.0 335.0 319.5 292.0 277.7 278.1 280.5 266.5 256.0 263.8 295.0 296.0 290.6 285.2 279.5 274.6 270.5 266.2 263.9 260.6 255.6 249.3 244.7 240.1 236.3 231.0 225.3 220.2 220.0 218.7 216.2 210.4 194.8 176.4 179.0 187.5 202.2 213.6 220.0 236.6 235.3 218.8 208.8 214.1 235.6 236.4 216.7 195.9 185.6 180.0 175.8 169.5 158.5 154.1 152.8 152.8 152.8 150.2 139.5 124.8 102.8  97.8  96.7  94.8  92.6 104.7 128.5 164.2 185.2 208.4 246.9 267.6 266.2 275.8 265.7 229.4 194.0 172.7 156.1 154.7 159.0 170.5 190.7 184.1 161.7 161.7 173.9 176.4 165.4 189.1 220.6 252.8 251.5 234.4 226.6 229.8 232.1 229.1 246.6 242.6 260.2 277.9 253.9 248.9 247.6 226.0 198.0 163.5 166.2 167.3 140.6 142.1 125.1  97.6  88.4  76.9  76.0  93.0 106.9 129.5 147.9 173.0 191.9 186.2
-9999.0 -9999.0 -9999.0 -9999.0 -9999.0 -9999.0 -9999.0 -9999.0 -9999.0 -9999.0 -9999.0 -9999.0 -9999.0 -9999.0 -9999.0 -9999.0 -9999.0 -9999.0 -9999.0 -9999.0 -9999.0 -9999.0 -9999.0 -9999.0 -9999.0 -9999.0 -9999.0 -9999.0 -9999.0 -9999.0 -9999.0 -9999.0 -9999.0 -9999.0 -9999.0 -9999.0 -9999.0 -9999.0 -9999.0 -9999.0 -9999.0 -9999.0 -9999.0 -9999.0 -9999.0 -9999.0 -9999.0 -9999.0 -9999.0 -9999.0 -9999.0 -9999.0 -9999.0 -9999.0 -9999.0 -9999.0 -9999.0 -9999.0 -9999.0 -9999.0 -9999.0 -9999.0 -9999.0 -9999.0 -9999.0 -9999.0 -9999.0 -9999.0 -9999.0 -9999.0 -9999.0 -9999.0 -9999.0 -9999.0 -9999.0 -9999.0 -9999.0 -9999.0 -9999.0 -9999.0 -9999.0 -9999.0 -9999.0 -9999.0 -9999.0 -9999.0 -9999.0 -9999.0 -9999.0 -9999.0 -9999.0 -9999.0 -9999.0 -9999.0 -9999.0 -9999.0 -9999.0 -9999.0 -9999.0 -9999.0 -9999.0 -9999.0 -9999.0 -9999.0 -9999.0 -9999.0 -9999.0 -9999.0 -9999.0 -9999.0 -9999.0 -9999.0 -9999.0 -9999.0 -9999.0 -9999.0 -9999.0 -9999.0 -9999.0 -9999.0 -9999.0 -9999.0 -9999.0 -9999.0 -9999.0 -9999.0 -9999.0 1074.1 972.5 894.5 800.7 666.9 559.8 501.3 473.0 475.4 492.0 486.6 474.0 451.3 436.5 482.9 530.8 510.5 484.4 480.7 462.4 432.4 405.4 429.6 510.9 507.3 492.9 461.4 443.0 445.9 465.1 461.8 476.3 475.9 443.3 367.6 335.5 358.1 391.4 393.5 397.6 411.3 429.7 422.9 387.9 376.1 399.1 396.4 390.9 405.8 433.4 451.4 445.6 425.8 417.7 402.8 344.8 288.2 283.9 324.0 365.7 375.9 374.8 369.8 363.1 344.7 295.4 257.5 280.3 319.9 360.4 408.5 424.0 432.5 426.1 516.2 657.6 815.1 882.2 944.6 1026.3 1111.9 1177.3 1180.6 1094.8 991.5 999.5 1094.9 1190.7 1258.2 1257.6 1204.2 1178.3 1123.1 1047.8 986.9 933.7 839.5 707.9 646.7 624.2 621.0 632.5 657.1 691.7 745.7 676.4 600.7 553.5 545.8 545.8 568.7 572.3 553.5 518.3 525.9 529.4 498.0 473.2 439.7 400.4 371.5 392.1 455.8 483.4 481.1 498.2 534.0 545.4 560.6 572.6 559.0 587.0 612.9 597.7 605.5 674.6 744.6 738.9 678.9 609.8 567.4 605.9 667.6 718.9 635.2 458.6 409.8 465.5 477.7 461.7 410.0 389.2 394.4 405.7 402.9 387.2 390.3 406.6 407.4 387.7 365.0 360.6 348.5 340.3 332.2 308.9 273.7 247.3 253.9 283.5 290.1 285.5 279.7 274.7 271.4 268.2 269.6 268.2 263.5 256.4 252.6 248.6 243.4 236.0 231.3 226.4 219.0 188.1 175.1 172.6 168.0 166.0 167.9 158.0 159.7 174.6 203.9 239.9 257.3 237.7 211.8 198.0 210.1 218.3 204.2 191.1 184.0 178.8 172.4 159.4 153.3 153.1 149.4 145.2 131.8 123.6 108.0  99.7 108.4 139.4 158.0 151.8 145.3 170.3 195.5 212.2 235.9 259.4 275.0 270.5 266.9 283.2 278.4 245.9 206.9 188.0 184.8 198.7 195.8 195.2 209.1 212.0 196.5 201.9 210.8 225.3 207.4 214.2 254.5 275.3 265.3 253.3 234.5 214.6 196.4 192.6 204.5 225.0 246.1 231.7 205.4 222.2 227.7 219.5 196.7 159.6 128.4 119.4 111.3  91.6  87.2  95.4 102.6 108.3 127.3 160.4 179.4 196.6 215.9 234.4 245.6 231.2
-9999.0 -9999.0 -9999.0 -9999.0 -9999.0 -9999.0 -9999.0 -9999.0 -9999.0 -9999.0 -9999.0 -9999.0 -9999.0 -9999.0 -9999.0 -9999.0 -9999.0 -9999.0 -9999.0 -9999.0 -9999.0 -9999.0 -9999.0 -9999.0 -9999.0 -9999.0 -9999.0 -9999.0 -9999.0 -9999.0 -9999.0 -9999.0 -9999.0 -9999.0 -9999.0 -9999.0 -9999.0 -9999.0 -9999.0 -9999.0 -9999.0 -9999.0 -9999.0 -9999.0 -9999.0 -9999.0 -9999.0 -9999.0 -9999.0 -9999.0 -9999.0 -9999.0 -9999.0 -9999.0 -9999.0 -9999.0 -9999.0 -9999.0 -9999.0 -9999.0 -9999.0 -9999.0 -9999.0 -9999.0 -9999.0 -9999.0 -9999.0 -9999.0 -9999.0 -9999.0 -9999.0 -9999.0 -9999.0 -9999.0 -9999.0 -9999.0 -9999.0 -9999.0 -9999.0 -9999.0 -9999.0 -9999.0 -9999.0 -9999.0 -9999.0 -9999.0 -9999.0 -9999.0 -9999.0 -9999.0 -9999.0 -9999.0 -9999.0 -9999.0 -9999.0 -9999.0 -9999.0 -9999.0 -9999.0 -9999.0 -9999.0 -9999.0 -9999.0 -9999.0 -9999.0 -9999.0 -9999.0 -9999.0 -9999.0 -9999.0 -9999.0 -9999.0 -9999.0 -9999.0 -9999.0 -9999.0 -9999.0 -9999.0 -9999.0 -9999.0 -9999.0 -9999.0 -9999.0 -9999.0 -9999.0 -9999.0 -9999.0 1087.6 952.1 798.9 668.6 592.1 592.0 555.7 517.8 512.9 507.4 492.8 476.0 469.5 497.1 580.8 593.1 514.2 447.6 424.3 407.0 410.1 454.5 546.0 614.2 602.0 509.6 492.8 490.4 477.5 515.8 533.1 509.6 471.3 409.1 344.6 369.4 397.0 402.1 412.2 418.9 428.5 439.9 419.8 389.5 381.9 409.2 430.8 425.5 437.8 469.6 467.5 435.1 405.6 385.7 351.1 302.3 293.2 336.9 372.8 396.0 394.6 369.3 350.2 325.6 280.8 261.4 274.1 309.1 332.1 377.2 439.8 490.9 502.6 466.8 508.6 636.4 788.1 923.0 1029.9 1069.5 1070.8 1075.0 1091.5 1119.5 1111.0 1114.4 1198.7 1320.2 1432.4 1453.1 1373.5 1269.4 1155.2 1048.5 950.7 878.3 807.6 764.9 773.0 787.5 787.6 835.1 856.2 832.5 825.9 758.9 671.1 603.0 571.2 554.2 553.5 532.7 514.5 498.6 469.5 438.0 419.7 418.7 413.6 385.9 388.4 441.2 467.3 496.7 517.3 530.4 537.9 539.3 537.6 547.3 546.5 568.1 593.9 581.7 564.5 604.4 596.5 553.3 504.9 506.8 495.4 480.9 532.5 634.9 572.2 435.3 463.0 617.9 623.9 536.3 454.2 442.0 455.5 460.7 438.4 404.4 403.4 398.1 393.8 388.2 376.1 374.9 357.6 335.5 317.0 310.5 299.9 267.3 238.1 241.7 262.1 258.9 259.3 271.8 271.6 265.6 261.0 257.7 251.8 255.8 254.8 245.2 238.9 233.2 233.1 231.7 227.0 217.8 216.4 212.0 212.4 219.2 212.4 189.6 168.4 149.6 163.5 205.2 247.1 243.0 219.8 206.1 193.9 190.5 187.8 185.8 177.9 165.9 158.5 154.6 150.9 136.8 112.7 106.5 102.4 102.2 104.7 141.9 187.6 229.0 266.0 264.3 241.2 248.2 252.2 254.5 252.0 245.7 237.0 247.8 265.9 275.6 281.3 281.7 262.8 245.9 243.7 250.3 247.5 250.5 251.7 251.6 248.3 247.6 258.7 277.9 280.0 276.2 282.5 275.0 286.0 282.3 260.1 235.0 206.5 178.7 173.0 188.6 189.5 177.5 176.3 186.6 158.9 150.0 143.2 116.0  93.4  92.8 105.5 106.6 122.2 154.6 160.3 146.8 150.4 183.8 229.8 269.5 278.2 268.6 254.6 234.8
-9999.0 -9999.0 -9999.0 -9999.0 -9999.0 -9999.0 -9999.0 -9999.0 -9999.0 -9999.0 -9999.0 -9999.0 -9999.0 -9999.0 -9999.0 -9999.0 -9999.0 -9999.0 -9999.0 -9999.0 -9999.0 -9999.0 -9999.0 -9999.0 -9999.0 -9999.0 -9999.0 -9999.0 -9999.0 -9999.0 -9999.0 -9999.0 -9999.0 -9999.0 -9999.0 -9999.0 -9999.0 -9999.0 -9999.0 -9999.0 -9999.0 -9999.0 -9999.0 -9999.0 -9999.0 -9999.0 -9999.0 -9999.0 -9999.0 -9999.0 -9999.0 -9999.0 -9999.0 -9999.0 -9999.0 -9999.0 -9999.0 -9999.0 -9999.0 -9999.0 -9999.0 -9999.0 -9999.0 -9999.0 -9999.0 -9999.0 -9999.0 -9999.0 -9999.0 -9999.0 -9999.0 -9999.0 -9999.0 -9999.0 -9999.0 -9999.0 -9999.0 -9999.0 -9999.0 -9999.0 -9999.0 -9999.0 -9999.0 -9999.0 -9999.0 -9999.0 -9999.0 -9999.0 -9999.0 -9999.0 -9999.0 -9999.0 -9999.0 -9999.0 -9999.0 -9999.0 -9999.0 -9999.0 -9999.0 -9999.0 -9999.0 -9999.0 -9999.0 -9999.0 -9999.0 -9999.0 -9999.0 -9999.0 -9999.0 -9999.0 -9999.0 -9999.0 -9999.0 -9999.0 -9999.0 -9999.0 -9999.0 -9999.0 -9999.0 -9999.0 -9999.0 -9999.0 -9999.0 -9999.0 -9999.0 -9999.0 -9999.0 1097.2 968.0 818.7 708.1 706.9 665.5 588.9 540.9 513.3 495.3 495.6 500.4 491.6 528.2 588.4 532.8 438.1 446.3 438.6 439.7 482.2 526.2 593.9 667.7 620.0 546.0 592.5 573.6 528.4 548.5 610.3 567.8 474.5 376.8 352.8 400.8 423.2 418.6 432.5 452.0 454.7 442.9 421.7 396.9 388.2 408.5 439.4 466.0 485.1 465.1 424.0 405.5 388.5 385.2 334.9 299.9 343.2 383.9 397.2 394.0 378.2 353.8 329.2 278.5 262.7 287.1 314.7 325.4 339.7 375.1 429.2 480.0 509.6 515.8 536.0 617.6 747.6 867.0 945.4 933.7 921.2 956.5 1003.4 1049.6 1075.1 1133.5 1213.9 1319.6 1401.9 1437.8 1419.4 1308.4 1158.6 1039.6 922.8 818.3 818.3 906.0 929.3 905.6 931.0 974.9 993.4 972.4 928.4 846.4 746.1 646.7 574.0 543.0 523.3 486.5 454.4 443.2 432.0 427.7 476.5 479.8 461.1 409.6 394.0 465.8 507.1 510.9 503.8 519.6 503.9 497.2 509.4 529.5 559.2 591.1 605.6 585.8 547.0 523.8 529.9 535.9 486.5 505.3 502.6 476.4 472.9 472.0 453.2 484.3 614.1 710.4 644.8 533.4 477.1 471.8 472.1 451.4 421.9 378.0 352.5 330.6 314.8 318.9 325.9 324.8 321.5 322.2 320.2 321.0 321.2 309.1 278.2 246.5 238.9 233.7 222.6 230.4 236.3 220.5 213.1 208.8 205.2 204.2 210.5 230.2 227.4 224.6 224.5 224.2 224.8 227.5 229.3 228.1 228.5 233.1 230.1 216.9 200.4 175.5 151.4 149.2 167.2 178.1 182.2 193.4 188.7 185.2 176.7 176.5 170.0 162.6 159.9 145.9 117.3 104.2 106.9 121.8 132.8 145.1 180.9 234.2 262.2 279.5 297.2 286.0 260.0 274.2 258.9 260.4 232.5 212.5 222.9 234.9 241.5 255.6 276.9 288.4 266.9 240.7 231.6 244.8 261.5 253.6 231.6 236.0 225.3 233.3 258.1 276.5 278.5 248.5 235.2 244.7 271.3 272.0 239.2 215.7 193.0 174.3 172.2 167.7 157.9 151.8 152.3 151.5 128.3 112.1 112.7 116.5 123.7 146.5 149.2 159.6 159.2 159.0 176.7 194.8 196.7 213.3 258.2 279.6 262.7 243.9 229.9 217.8
-9999.0 -9999.0 -9999.0 -9999.0 -9999.0 -9999.0 -9999.0 -9999.0 -9999.0 -9999.0 -9999.0 -9999.0 -9999.0 -9999.0 -9999.0 -9999.0 -9999.0 -9999.0 -9999.0 -9999.0 -9999.0 -9999.0 -9999.0 -9999.0 -9999.0 -9999.0 -9999.0 -9999.0 -9999.0 -9999.0 -9999.0 -9999.0 -9999.0 -9999.0 -9999.0 -9999.0 -9999.0 -9999.0 -9999.0 -9999.0 -9999.0 -9999.0 -9999.0 -9999.0 -9999.0 -9999.0 -9999.0 -9999.0 -9999.0 -9999.0 -9999.0 -9999.0 -9999.0 -9999.0 -9999.0 -9999.0 -9999.0 -9999.0 -9999.0 -9999.0 -9999.0 -9999.0 -9999.0 -9999.0 -9999.0 -9999.0 -9999.0 -9999.0 -9999.0 -9999.0 -9999.0 -9999.0 -9999.0 -9999.0 -9999.0 -9999.0 -9999.0 -9999.0 -9999.0 -9999.0 -9999.0 -9999.0 -9999.0 -9999.0 -9999.0 -9999.0 -9999.0 -9999.0 -9999.0 -9999.0 -9999.0 -9999.0 -9999.0 -9999.0 -9999.0 -9999.0 -9999.0 -9999.0 -9999.0 -9999.0 -9999.0 -9999.0 -9999.0 -9999.0 -9999.0 -9999.0 -9999.0 -9999.0 -9999.0 -9999.0 -9999.0 -9999.0 -9999.0 -9999.0 -9999.0 -9999.0 -9999.0 -9999.0 -9999.0 -9999.0 -9999.0 -9999.0 -9999.0 -9999.0 -9999.0 -9999.0 -9999.0 -9999.0 1033.4 933.7 858.4 794.1 699.9 641.1 571.1 527.0 508.9 520.8 535.3 516.8 519.1 508.0 447.5 483.7 543.0 496.4 477.5 499.5 563.0 632.7 680.9 653.1 672.7 725.3 695.0 585.1 534.1 563.4 511.7 392.0 356.2 406.0 439.4 455.6 440.3 445.5 466.4 457.5 424.2 409.3 397.1 400.8 422.7 452.5 499.4 509.9 464.3 441.2 431.5 399.8 369.5 321.0 315.1 381.9 398.7 379.2 356.2 348.7 327.4 285.9 264.7 266.9 311.6 327.2 334.0 345.8 364.1 394.3 432.9 484.2 558.5 645.6 691.0 745.7 773.2 781.2 778.5 837.2 859.8 856.2 853.8 947.0 1080.1 1184.0 1245.2 1272.6 1272.4 1259.8 1205.1 1089.8 984.3 885.0 842.3 895.0 943.2 949.4 966.5 974.8 978.5 971.6 961.1 928.3 849.7 763.1 686.4 618.2 555.5 502.9 474.1 479.8 472.1 473.4 477.6 518.3 501.5 480.9 449.5 399.2 423.7 458.0 441.8 442.5 473.0 492.5 521.2 547.2 562.5 585.0 594.9 575.7 555.1 528.9 544.4 616.4 638.6 544.4 534.8 573.6 587.4 612.3 553.0 572.2 667.8 734.1 691.2 598.1 529.9 492.4 462.2 420.7 394.7 379.5 363.5 378.9 383.9 358.4 318.0 292.7 279.1 269.5 269.5 275.1 290.6 319.2 315.1 304.6 300.6 294.2 289.4 258.9 232.0 220.7 223.5 240.7 246.7 244.5 220.8 190.2 198.0 207.7 216.1 218.5 215.4 210.5 217.3 220.2 217.0 221.8 226.7 230.1 220.5 223.1 223.6 205.9 181.1 158.8 146.8 139.7 141.8 144.4 143.2 143.1 156.9 155.4 156.3 138.8 109.7 108.7 126.4 143.5 152.0 157.2 186.6 244.8 270.5 272.3 286.4 289.7 262.9 240.9 252.1 238.4 233.5 207.8 216.2 229.6 235.0 244.2 258.6 277.6 277.9 233.7 206.9 214.8 243.7 260.0 232.2 202.3 209.7 229.1 245.4 261.5 258.2 230.0 209.8 224.3 249.5 269.2 267.6 248.4 231.0 217.4 208.6 218.2 208.6 193.4 180.4 185.7 203.7 209.2 211.4 215.0 203.3 168.6 179.8 173.1 172.1 196.7 204.0 207.5 226.6 239.3 260.2 287.2 289.6 281.7 276.1 273.1 259.0
-9999.0 -9999.0 -9999.0 -9999.0 -9999.0 -9999.0 -9999.0 -9999.0 -9999.0 -9999.0 -9999.0 -9999.0 -9999.0 -9999.0 -9999.0 -9999.0 -9999.0 -9999.0 -9999.0 -9999.0 -9999.0 -9999.0 -9999.0 -9999.0 -9999.0 -9999.0 -9999.0 -9999.0 -9999.0 -9999.0 -9999.0 -9999.0 -9999.0 -9999.0 -9999.0 -9999.0 -9999.0 -9999.0 -9999.0 -9999.0 -9999.0 -9999.0 -9999.0 -9999.0 -9999.0 -9999.0 -9999.0 -9999.0 -9999.0 -9999.0 -9999.0 -9999.0 -9999.0 -9999.0 -9999.0 -9999.0 -9999.0 -9999.0 -9999.0 -9999.0 -9999.0 -9999.0 -9999.0 -9999.0 -9999.0 -9999.0 -9999.0 -9999.0 -9999.0 -9999.0 -9999.0 -9999.0 -9999.0 -9999.0 -9999.0 -9999.0 -9999.0 -9999.0 -9999.0 -9999.0 -9999.0 -9999.0 -9999.0 -9999.0 -9999.0 -9999.0 -9999.0 -9999.0 -9999.0 -9999.0 -9999.0 -9999.0 -9999.0 -9999.0 -9999.0 -9999.0 -9999.0 -9999.0 -9999.0 -9999.0 -9999.0 -9999.0 -9999.0 -9999.0 -9999.0 -9999.0 -9999.0 -9999.0 -9999.0 -9999.0 -9999.0 -9999.0 -9999.0 -9999.0 -9999.0 -9999.0 -9999.0 -9999.0 -9999.0 -9999.0 -9999.0 -9999.0 -9999.0 -9999.0 -9999.0 -9999.0 -9999.0 -9999.0 -9999.0 -9999.0 918.0 819.2 690.8 629.9 577.1 541.5 522.2 519.9 521.3 506.8 493.0 460.3 455.1 580.8 607.4 542.8 505.4 524.4 546.3 598.0 648.0 668.4 689.4 713.9 692.5 606.8 493.6 442.8 392.5 357.0 414.7 500.3 497.4 484.2 468.0 486.0 477.0 443.1 420.8 417.9 404.6 418.5 449.1 483.9 509.2 516.4 484.4 444.9 412.5 386.9 364.3 317.5 335.3 399.8 398.6 373.2 349.3 331.5 311.5 271.1 280.7 284.1 320.5 333.0 343.1 347.3 366.2 407.6 462.4 505.0 567.8 635.7 687.6 671.0 611.3 621.9 659.2 679.1 662.8 696.3 783.3 913.9 1017.3 1122.1 1235.2 1274.8 1229.8 1165.4 1079.2 1018.9 966.5 955.3 975.3 944.5 886.8 870.3 885.7 864.2 857.2 855.1 862.3 823.7 721.6 631.0 570.3 545.7 519.9 504.5 511.9 527.4 505.2 516.3 535.8 537.0 529.5 513.7 496.0 445.0 402.3 427.9 448.4 445.1 455.7 497.6 530.3 551.5 560.3 571.1 557.5 539.7 535.6 538.3 553.1 605.9 657.1 617.1 557.0 573.4 647.2 692.9 716.7 747.4 774.1 737.3 674.4 599.6 545.3 494.1 461.5 472.3 459.6 436.6 426.9 413.3 394.9 373.1 344.5 326.4 308.6 308.4 303.6 275.9 258.6 258.6 256.4 251.9 256.3 266.4 286.5 274.2 261.3 253.7 257.9 268.4 285.3 289.2 267.0 222.8 194.3 181.8 180.4 178.1 173.9 168.9 172.8 181.2 186.9 212.8 227.0 238.9 249.4 264.2 272.9 267.4 249.0 225.3 203.1 173.0 160.5 147.1 136.2 128.7 126.8 123.5 117.6 109.2 111.5 143.8 156.5 156.6 165.4 195.8 239.8 252.9 259.5 274.7 267.9 255.6 244.4 218.3 223.1 222.0 200.9 212.0 232.7 254.8 273.1 251.9 244.7 251.9 260.1 233.6 195.3 208.2 232.8 244.1 214.0 194.5 220.5 243.7 255.9 254.1 238.0 206.1 195.1 214.3 234.5 230.6 244.7 256.6 261.5 257.9 251.6 266.2 263.0 244.4 232.9 241.6 261.5 287.8 281.5 263.8 238.4 208.5 218.8 218.7 216.4 232.2 226.9 209.1 209.7 226.0 236.6 246.6 270.8 286.9 272.1 274.9 271.6
-9999.0 -9999.0 -9999.0 -9999.0 -9999.0 -9999.0 -9999.0 -9999.0 -9999.0 -9999.0 -9999.0 -9999.0 -9999.0 -9999.0 -9999.0 -9999.0 -9999.0 -9999.0 -9999.0 -9999.0 -9999.0 -9999.0 -9999.0 -9999.0 -9999.0 -9999.0 -9999.0 -9999.0 -9999.0 -9999.0 -9999.0 -9999.0 -9999.0 -9999.0 -9999.0 -9999.0 -9999.0 -9999.0 -9999.0 -9999.0 -9999.0 -9999.0 -9999.0 -9999.0 -9999.0 -9999.0 -9999.0 -9999.0 -9999.0 -9999.0 -9999.0 -9999.0 -9999.0 -9999.0 -9999.0 -9999.0 -9999.0 -9999.0 -9999.0 -9999.0 -9999.0 -9999.0 -9999.0 -9999.0 -9999.0 -9999.0 -9999.0 -9999.0 -9999.0 -9999.0 -9999.0 -9999.0 -9999.0 -9999.0 -9999.0 -9999.0 -9999.0 -9999.0 -9999.0 -9999.0 -9999.0 -9999.0 -9999.0 -9999.0 -9999.0 -9999.0 -9999.0 -9999.0 -9999.0 -9999.0 -9999.0 -9999.0 -9999.0 -9999.0 -9999.0 -9999.0 -9999.0 -9999.0 -9999.0 -9999.0 -9999.0 -9999.0 -9999.0 -9999.0 -9999.0 -9999.0 -9999.0 -9999.0 -9999.0 -9999.0 -9999.0 -9999.0 -9999.0 -9999.0 -9999.0 -9999.0 -9999.0 -9999.0 -9999.0 -9999.0 -9999.0 -9999.0 -9999.0 -9999.0 -9999.0 -9999.0 -9999.0 -9999.0 -9999.0 -9999.0 910.4 838.3 769.7 705.6 607.4 549.8 530.2 522.2 512.9 503.8 495.4 462.0 485.0 624.6 654.9 578.6 569.6 572.6 620.5 598.9 534.5 490.3 501.9 525.0 498.4 447.4 395.1 369.8 376.8 399.6 470.4 545.1 571.5 561.3 516.9 512.5 488.2 448.4 440.7 440.8 423.9 437.2 465.8 484.9 463.9 467.3 465.8 432.0 414.1 390.8 363.1 323.1 356.6 415.0 407.8 380.5 355.8 327.6 285.2 275.0 307.3 301.4 333.6 345.1 359.2 376.6 390.5 423.6 467.6 502.1 529.0 557.3 564.9 510.7 480.9 518.0 561.7 589.5 646.6 713.4 802.0 904.4 1019.2 1126.7 1243.8 1278.4 1272.2 1253.9 1219.4 1174.6 1116.6 1107.0 1036.0 912.7 816.3 786.1 777.4 772.3 772.7 766.0 756.6 697.3 607.4 595.9 602.1 638.8 656.3 622.4 577.5 552.8 521.8 520.6 557.6 574.2 574.9 551.1 519.1 467.3 413.8 485.2 531.5 531.3 507.6 497.6 513.9 517.5 543.0 572.2 576.9 560.0 566.6 576.1 576.1 593.7 643.9 653.1 574.9 606.7 714.0 783.6 822.3 827.5 793.9 752.6 698.8 621.0 544.2 499.2 503.5 510.7 478.8 443.4 410.0 390.5 377.0 368.1 361.2 364.5 373.4 378.7 369.5 346.0 317.6 308.5 306.1 292.2 266.7 239.8 235.6 228.8 225.2 218.3 222.7 254.3 283.8 301.3 293.9 274.7 249.6 225.4 221.1 219.3 213.4 200.2 178.6 167.2 159.7 173.2 208.6 244.2 276.2 278.1 264.6 257.8 236.9 217.1 203.7 193.7 181.4 171.2 163.8 150.2 150.7 126.3 109.3 113.8 144.7 160.5 166.5 179.6 215.0 252.6 244.7 243.9 262.0 251.6 225.3 231.1 230.4 202.7 217.4 204.2 194.2 215.4 232.3 256.3 270.1 227.2 212.4 236.3 245.7 229.7 190.4 195.3 212.4 217.6 194.0 196.2 221.2 229.2 229.5 240.6 220.1 190.2 193.7 216.5 223.2 205.6 218.2 235.9 264.0 282.1 290.1 305.2 298.5 292.0 296.0 309.3 313.0 325.3 308.8 287.2 271.1 261.2 270.6 269.4 262.1 241.7 210.3 185.8 184.0 189.7 190.1 216.6 257.6 275.8 268.8 253.5 239.5
-9999.0 -9999.0 -9999.0 -9999.0 -9999.0 -9999.0 -9999.0 -9999.0 -9999.0 -9999.0 -9999.0 -9999.0 -9999.0 -9999.0 -9999.0 -9999.0 -9999.0 -9999.0 -9999.0 -9999.0 -9999.0 -9999.0 -9999.0 -9999.0 -9999.0 -9999.0 -9999.0 -9999.0 -9999.0 -9999.0 -9999.0 -9999.0 -9999.0 -9999.0 -9999.0 -9999.0 -9999.0 -9999.0 -9999.0 -9999.0 -9999.0 -9999.0 -9999.0 -9999.0 -9999.0 -9999.0 -9999.0 -9999.0 -9999.0 -9999.0 -9999.0 -9999.0 -9999.0 -9999.0 -9999.0 -9999.0 -9999.0 -9999.0 -9999.0 -9999.0 -9999.0 -9999.0 -9999.0 -9999.0 -9999.0 -9999.0 -9999.0 -9999.0 -9999.0 -9999.0 -9999.0 -9999.0 -9999.0 -9999.0 -9999.0 -9999.0 -9999.0 -9999.0 -9999.0 -9999.0 -9999.0 -9999.0 -9999.0 -9999.0 -9999.0 -9999.0 -9999.0 -9999.0 -9999.0 -9999.0 -9999.0 -9999.0 -9999.0 -9999.0 -9999.0 -9999.0 -9999.0 -9999.0 -9999.0 -9999.0 -9999.0 -9999.0 -9999.0 -9999.0 -9999.0 -9999.0 -9999.0 -9999.0 -9999.0 -9999.0 -9999.0 -9999.0 -9999.0 -9999.0 -9999.0 -9999.0 -9999.0 -9999.0 -9999.0 -9999.0 -9999.0 -9999.0 -9999.0 -9999.0 -9999.0 -9999.0 -9999.0 -9999.0 -9999.0 -9999.0 952.1 895.2 846.4 767.9 666.3 581.4 566.8 567.9 560.4 539.5 504.4 464.6 551.2 658.1 710.4 656.9 658.8 657.8 642.8 538.0 411.7 392.6 388.9 387.3 396.3 412.5 456.1 471.2 447.9 476.5 466.4 482.6 539.7 590.5 573.4 519.4 484.1 458.5 470.4 473.9 461.6 458.0 455.5 443.0 419.6 411.8 396.5 369.2 362.5 354.2 342.2 322.2 367.2 416.1 409.9 377.8 350.7 323.2 276.5 295.5 329.0 312.0 332.1 357.8 362.8 377.8 387.1 387.9 399.8 410.7 427.9 456.8 453.7 435.1 505.9 612.0 650.0 690.8 773.6 851.6 919.9 993.2 1067.1 1143.4 1219.8 1251.8 1267.2 1276.4 1286.8 1239.3 1132.3 1019.5 929.2 855.4 839.1 849.7 848.2 863.9 857.8 820.0 773.6 745.2 735.1 738.5 749.1 757.0 759.9 685.1 601.5 563.4 549.9 546.7 559.1 574.5 583.5 542.9 479.5 432.4 424.9 501.8 550.5 571.1 543.4 515.5 507.2 521.0 560.5 594.5 586.0 561.9 573.4 588.9 572.4 585.4 632.2 643.4 596.9 683.8 800.7 850.5 850.9 816.6 752.2 711.9 678.1 622.2 568.4 547.7 534.7 512.7 475.9 439.9 429.3 429.3 422.4 415.9 404.1 398.0 390.7 382.4 368.7 353.6 346.4 343.7 342.6 338.4 333.3 299.0 275.2 283.2 284.6 249.5 213.2 222.2 282.2 314.0 303.8 275.2 250.1 245.7 250.3 251.7 252.3 243.2 235.5 230.4 197.2 163.7 159.7 191.3 227.3 241.5 227.9 213.5 209.4 202.6 189.2 177.8 169.9 153.3 145.3 143.3 127.4 111.8 118.9 147.3 162.4 171.4 188.6 219.5 235.0 231.2 224.8 239.0 227.9 208.2 199.7 199.6 196.4 177.8 176.2 159.4 179.2 207.4 224.0 243.6 245.2 204.9 209.1 226.0 211.6 216.3 186.9 194.5 213.4 203.7 180.8 206.3 224.6 208.1 217.0 235.2 230.0 194.7 179.9 193.5 191.5 197.4 224.8 259.7 267.8 272.9 290.3 279.8 262.9 274.7 289.5 289.8 293.0 302.1 312.9 298.2 278.4 274.9 270.3 265.6 254.9 231.2 209.3 188.9 173.6 165.7 175.1 194.8 212.3 231.9 275.4 283.3 264.2
-9999.0 -9999.0 -9999.0 -9999.0 -9999.0 -9999.0 -9999.0 -9999.0 -9999.0 -9999.0 -9999.0 -9999.0 -9999.0 -9999.0 -9999.0 -9999.0 -9999.0 -9999.0 -9999.0 -9999.0 -9999.0 -9999.0 -9999.0 -9999.0 -9999.0 -9999.0 -9999.0 -9999.0 -9999.0 -9999.0 -9999.0 -9999.0 -9999.0 -9999.0 -9999.0 -9999.0 -9999.0 -9999.0 -9999.0 -9999.0 -9999.0 -9999.0 -9999.0 -9999.0 -9999.0 -9999.0 -9999.0 -9999.0 -9999.0 -9999.0 -9999.0 -9999.0 -9999.0 -9999.0 -9999.0 -9999.0 -9999.0 -9999.0 -9999.0 -9999.0 -9999.0 -9999.0 -9999.0 -9999.0 -9999.0 -9999.0 -9999.0 -9999.0 -9999.0 -9999.0 -9999.0 -9999.0 -9999.0 -9999.0 -9999.0 -9999.0 -9999.0 -9999.0 -9999.0 -9999.0 -9999.0 -9999.0 -9999.0 -9999.0 -9999.0 -9999.0 -9999.0 -9999.0 -9999.0 -9999.0 -9999.0 -9999.0 -9999.0 -9999.0 -9999.0 -9999.0 -9999.0 -9999.0 -9999.0 -9999.0 -9999.0 -9999.0 -9999.0 -9999.0 -9999.0 -9999.0 -9999.0 -9999.0 -9999.0 -9999.0 -9999.0 -9999.0 -9999.0 -9999.0 -9999.0 -9999.0 -9999.0 -9999.0 -9999.0 -9999.0 -9999.0 -9999.0 -9999.0 -9999.0 -9999.0 -9999.0 -9999.0 -9999.0 -9999.0 997.8 907.0 847.5 862.6 796.5 703.0 617.0 573.7 559.7 559.3 509.8 473.7 488.1 586.3 684.1 703.8 630.7 626.9 613.1 518.4 425.7 402.6 475.8 495.0 466.4 535.9 596.8 619.6 560.2 495.3 489.5 541.9 507.0 501.3 569.2 589.1 550.3 506.1 498.1 519.5 520.2 479.9 453.8 428.8 411.6 386.9 363.9 351.2 346.3 337.9 329.9 328.5 352.5 408.9 427.1 403.7 370.9 344.9 316.8 278.6 303.2 346.2 337.4 327.8 333.4 340.2 349.2 357.8 370.0 385.8 407.7 425.4 430.6 434.2 447.1 469.6 516.8 559.4 602.4 652.6 751.6 855.4 926.6 1001.9 1095.4 1172.8 1193.9 1196.6 1210.2 1233.7 1174.8 1075.4 983.4 956.0 920.8 983.7 970.1 903.2 848.5 811.5 796.6 811.1 846.0 854.1 853.9 881.4 865.4 823.0 726.8 651.3 605.6 569.0 546.9 537.5 529.2 515.8 457.3 435.4 449.1 469.1 507.7 552.4 579.6 571.5 548.4 529.4 537.0 572.1 582.6 545.5 526.3 558.7 563.5 531.6 563.2 624.4 652.4 654.8 734.4 817.6 840.1 812.1 741.5 666.2 630.4 601.8 571.2 541.1 529.2 499.4 470.3 432.1 393.9 384.0 383.2 380.3 375.1 372.7 371.9 376.8 369.2 357.9 341.5 322.2 310.4 325.3 340.0 352.0 335.8 334.9 345.2 317.5 286.4 244.2 207.6 218.9 246.5 256.1 242.9 229.6 232.4 230.9 229.2 230.8 232.0 234.5 243.0 250.0 231.2 180.5 155.2 150.6 154.8 165.7 178.5 185.6 185.3 176.4 173.5 164.9 121.9 118.2 116.9 114.7 129.0 155.7 166.0 179.1 199.2 196.5 234.6 248.7 230.3 215.4 209.2 218.2 226.3 219.3 204.9 203.5 182.4 176.4 169.1 149.0 156.0 198.7 208.0 198.8 170.9 187.1 181.9 176.5 194.0 178.4 194.7 210.7 191.8 177.7 205.7 205.9 192.3 221.9 228.9 224.6 200.7 172.3 176.1 199.4 230.6 259.6 256.1 243.1 264.2 269.2 243.9 231.5 261.5 269.5 252.5 279.7 286.9 275.9 259.2 251.3 244.2 232.4 233.2 228.0 214.4 216.9 205.3 184.8 164.6 155.1 163.8 180.9 208.4 227.4 238.5 235.3
-9999.0 -9999.0 -9999.0 -9999.0 -9999.0 -9999.0 -9999.0 -9999.0 -9999.0 -9999.0 -9999.0 -9999.0 -9999.0 -9999.0 -9999.0 -9999.0 -9999.0 -9999.0 -9999.0 -9999.0 -9999.0 -9999.0 -9999.0 -9999.0 -9999.0 -9999.0 -9999.0 -9999.0 -9999.0 -9999.0 -9999.0 -9999.0 -9999.0 -9999.0 -9999.0 -9999.0 -9999.0 -9999.0 -9999.0 -9999.0 -9999.0 -9999.0 -9999.0 -9999.0 -9999.0 -9999.0 -9999.0 -9999.0 -9999.0 -9999.0 -9999.0 -9999.0 -9999.0 -9999.0 -9999.0 -9999.0 -9999.0 -9999.0 -9999.0 -9999.0 -9999.0 -9999.0 -9999.0 -9999.0 -9999.0 -9999.0 -9999.0 -9999.0 -9999.0 -9999.0 -9999.0 -9999.0 -9999.0 -9999.0 -9999.0 -9999.0 -9999.0 -9999.0 -9999.0 -9999.0 -9999.0 -9999.0 -9999.0 -9999.0 -9999.0 -9999.0 -9999.0 -9999.0 -9999.0 -9999.0 -9999.0 -9999.0 -9999.0 -9999.0 -9999.0 -9999.0 -9999.0 -9999.0 -9999.0 -9999.0 -9999.0 -9999.0 -9999.0 -9999.0 -9999.0 -9999.0 -9999.0 -9999.0 -9999.0 -9999.0 -9999.0 -9999.0 -9999.0 -9999.0 -9999.0 -9999.0 -9999.0 -9999.0 -9999.0 -9999.0 -9999.0 -9999.0 -9999.0 -9999.0 -9999.0 -9999.0 -9999.0 -9999.0 -9999.0 -9999.0 869.6 759.8 709.2 635.5 585.3 544.4 517.4 503.9 498.7 490.6 502.6 539.1 608.6 669.0 593.5 508.6 473.0 443.7 405.5 401.7 467.3 510.7 562.2 554.0 615.3 705.1 704.4 671.7 601.3 517.4 543.5 574.2 536.4 606.2 615.6 569.5 577.6 580.4 537.0 498.0 451.3 415.2 389.6 374.8 370.5 374.9 360.6 348.5 347.7 366.6 384.5 414.7 420.0 396.7 377.4 357.3 348.8 315.9 280.2 316.6 348.8 353.9 356.1 360.3 368.3 374.1 381.5 391.1 407.6 435.9 470.0 507.8 521.7 534.7 544.2 509.1 531.9 596.8 684.6 737.9 800.7 862.4 964.1 1092.3 1164.3 1106.1 1075.0 1135.8 1175.9 1139.4 1137.7 1156.8 1113.7 1056.8 1099.1 998.5 878.4 827.7 847.7 889.1 893.2 872.8 874.6 927.5 956.5 919.5 858.7 769.2 675.4 611.3 569.5 552.9 543.9 533.3 489.7 449.4 503.5 521.7 517.2 507.3 542.5 586.6 585.0 558.2 526.3 537.3 569.1 541.8 498.8 505.0 543.8 524.6 502.5 533.5 600.5 664.4 717.7 773.0 826.7 845.4 818.8 736.1 659.2 615.1 561.5 538.0 521.1 471.4 434.7 415.4 403.9 392.6 381.7 375.7 357.4 329.8 317.0 305.5 330.6 362.0 358.6 349.7 335.3 307.3 302.8 314.7 323.3 328.9 335.5 366.6 346.3 311.1 285.5 247.0 215.2 199.5 197.1 193.5 190.6 200.9 206.7 221.1 224.2 227.5 236.5 252.1 266.6 260.5 245.7 220.9 197.3 166.4 146.1 137.8 141.9 149.9 157.3 168.8 154.9 120.2 144.7 155.5 155.2 162.9 169.7 187.8 215.9 237.8 215.1 250.1 274.4 261.2 240.8 221.1 236.5 257.0 260.9 228.3 220.4 242.6 253.4 234.9 177.9 143.7 145.3 143.4 143.1 144.0 147.6 143.2 136.1 134.7 147.2 165.4 182.3 174.5 186.4 202.3 195.8 178.4 195.4 203.0 210.1 182.9 172.2 191.2 205.8 229.5 252.6 232.8 233.2 260.1 245.5 215.1 232.5 265.6 256.3 231.1 255.3 250.2 233.2 222.8 234.8 216.6 204.6 213.9 202.4 191.4 206.6 210.6 197.9 175.8 156.1 145.3 160.8 171.7 184.0 206.4 200.6
-9999.0 -9999.0 -9999.0 -9999.0 -9999.0 -9999.0 -9999.0 -9999.0 -9999.0 -9999.0 -9999.0 -9999.0 -9999.0 -9999.0 -9999.0 -9999.0 -9999.0 -9999.0 -9999.0 -9999.0 -9999.0 -9999.0 -9999.0 -9999.0 -9999.0 -9999.0 -9999.0 -9999.0 -9999.0 -9999.0 -9999.0 -9999.0 -9999.0 -9999.0 -9999.0 -9999.0 -9999.0 -9999.0 -9999.0 -9999.0 -9999.0 -9999.0 -9999.0 -9999.0 -9999.0 -9999.0 -9999.0 -9999.0 -9999.0 -9999.0 -9999.0 -9999.0 -9999.0 -9999.0 -9999.0 -9999.0 -9999.0 -9999.0 -9999.0 -9999.0 -9999.0 -9999.0 -9999.0 -9999.0 -9999.0 -9999.0 -9999.0 -9999.0 -9999.0 -9999.0 -9999.0 -9999.0 -9999.0 -9999.0 -9999.0 -9999.0 -9999.0 -9999.0 -9999.0 -9999.0 -9999.0 -9999.0 -9999.0 -9999.0 -9999.0 -9999.0 -9999.0 -9999.0 -9999.0 -9999.0 -9999.0 -9999.0 -9999.0 -9999.0 -9999.0 -9999.0 -9999.0 -9999.0 -9999.0 -9999.0 -9999.0 -9999.0 -9999.0 -9999.0 -9999.0 -9999.0 -9999.0 -9999.0 -9999.0 -9999.0 -9999.0 -9999.0 -9999.0 -9999.0 -9999.0 -9999.0 -9999.0 -9999.0 -9999.0 -9999.0 -9999.0 -9999.0 -9999.0 -9999.0 -9999.0 -9999.0 -9999.0 -9999.0 -9999.0 -9999.0 833.0 739.9 623.2 590.3 605.2 592.2 564.3 543.2 549.2 567.4 563.3 551.2 585.6 559.7 457.4 427.2 444.8 450.5 432.3 432.2 542.0 569.9 577.2 656.6 726.1 785.0 802.9 777.0 685.0 570.1 607.3 670.7 650.9 618.5 585.0 592.6 611.4 574.0 504.7 434.7 399.2 391.2 397.4 404.7 423.7 409.9 363.0 366.1 418.3 431.8 423.4 434.3 430.5 404.0 379.8 374.3 372.4 333.5 284.0 309.4 332.4 336.9 353.0 381.7 394.8 401.5 405.9 405.2 405.7 415.7 433.5 462.5 503.7 548.9 590.4 580.0 602.9 697.2 798.2 853.0 913.2 975.3 1043.0 1125.0 1122.3 1023.1 1035.7 1100.8 1125.5 1135.9 1168.7 1180.7 1136.2 1134.3 1085.3 945.5 883.7 889.2 921.2 893.8 825.6 784.5 775.3 864.4 925.4 902.5 859.5 803.6 734.6 661.2 604.5 601.3 578.6 553.2 498.4 465.4 549.6 566.8 555.6 536.8 537.8 564.0 551.4 521.3 506.5 493.9 517.5 489.6 459.6 463.6 493.5 494.9 487.2 528.5 582.3 653.1 717.9 768.0 799.2 811.7 809.0 771.8 695.0 615.9 573.2 575.1 571.8 540.6 484.7 448.4 441.3 444.9 456.2 457.4 417.5 382.3 358.4 328.0 292.0 300.3 312.0 332.2 333.1 319.8 296.2 285.9 300.9 302.2 315.8 346.3 369.2 348.6 317.6 291.4 266.8 247.1 225.7 217.4 205.5 192.1 180.5 193.0 219.5 231.6 246.4 264.1 256.5 234.7 235.6 220.6 206.3 191.6 179.4 154.2 141.9 132.7 126.7 135.9 125.1 123.9 159.8 170.8 171.2 174.1 196.1 227.4 258.5 266.4 236.8 272.9 300.7 296.5 266.9 238.5 242.6 268.1 280.5 243.6 240.6 263.3 250.0 207.0 195.2 212.3 204.3 174.8 187.0 214.0 230.9 225.7 205.8 167.3 135.4 124.7 127.8 143.5 173.7 188.8 194.6 170.1 177.8 197.5 185.1 164.1 176.9 192.4 218.4 239.4 242.1 215.3 226.4 244.9 216.8 206.9 245.6 258.9 234.8 215.2 237.5 226.6 204.6 210.4 213.4 197.0 190.8 192.2 175.4 185.2 197.7 188.7 182.2 177.5 165.9 144.3 139.3 161.1 183.3 189.2 184.1
-9999.0 -9999.0 -9999.0 -9999.0 -9999.0 -9999.0 -9999.0 -9999.0 -9999.0 -9999.0 -9999.0 -9999.0 -9999.0 -9999.0 -9999.0 -9999.0 -9999.0 -9999.0 -9999.0 -9999.0 -9999.0 -9999.0 -9999.0 -9999.0 -9999.0 -9999.0 -9999.0 -9999.0 -9999.0 -9999.0 -9999.0 -9999.0 -9999.0 -9999.0 -9999.0 -9999.0 -9999.0 -9999.0 -9999.0 -9999.0 -9999.0 -9999.0 -9999.0 -9999.0 -9999.0 -9999.0 -9999.0 -9999.0 -9999.0 -9999.0 -9999.0 -9999.0 -9999.0 -9999.0 -9999.0 -9999.0 -9999.0 -9999.0 -9999.0 -9999.0 -9999.0 -9999.0 -9999.0 -9999.0 -9999.0 -9999.0 -9999.0 -9999.0 -9999.0 -9999.0 -9999.0 -9999.0 -9999.0 -9999.0 -9999.0 -9999.0 -9999.0 -9999.0 -9999.0 -9999.0 -9999.0 -9999.0 -9999.0 -9999.0 -9999.0 -9999.0 -9999.0 -9999.0 -9999.0 -9999.0 -9999.0 -9999.0 -9999.0 -9999.0 -9999.0 -9999.0 -9999.0 -9999.0 -9999.0 -9999.0 -9999.0 -9999.0 -9999.0 -9999.0 -9999.0 -9999.0 -9999.0 -9999.0 -9999.0 -9999.0 -9999.0 -9999.0 -9999.0 -9999.0 -9999.0 -9999.0 -9999.0 -9999.0 -9999.0 -9999.0 -9999.0 -9999.0 -9999.0 -9999.0 -9999.0 -9999.0 -9999.0 -9999.0 -9999.0 -9999.0 813.3 734.6 719.6 748.0 747.4 678.7 606.9 579.0 591.6 571.7 542.8 518.4 502.4 439.6 462.8 547.5 536.1 479.6 443.7 457.7 531.2 595.6 620.3 698.2 784.9 803.4 781.4 761.7 721.2 686.1 739.8 798.2 732.2 658.1 590.9 524.1 509.8 489.8 439.1 413.5 432.1 460.7 457.7 452.7 432.6 408.8 369.4 398.5 458.9 473.3 464.2 450.3 428.3 388.8 384.1 404.9 391.9 355.6 296.7 289.0 306.1 318.5 320.4 333.2 353.2 382.6 401.4 414.8 429.5 437.5 448.6 473.3 516.6 552.5 574.8 605.0 649.2 737.0 741.7 721.7 799.0 891.4 998.7 1044.5 965.7 948.4 999.5 992.3 1052.6 1118.6 1135.1 1143.9 1150.7 1120.1 1061.6 1052.9 1018.5 916.4 845.9 792.0 748.4 718.0 677.7 700.7 797.8 818.3 838.7 846.1 809.5 727.3 645.6 612.9 588.2 553.9 487.0 477.8 563.9 601.5 583.8 565.1 562.3 560.3 519.1 477.3 480.9 459.6 476.3 444.3 396.5 407.1 451.3 467.8 493.6 542.7 585.7 641.1 686.4 727.4 740.8 740.0 742.5 716.9 671.3 651.8 624.4 614.1 602.8 561.8 488.7 434.2 398.7 410.4 426.8 433.0 414.6 372.1 334.9 335.8 319.0 287.9 266.8 301.4 321.7 316.7 314.5 295.0 274.0 278.4 301.8 313.5 340.8 361.3 327.5 298.3 271.1 255.5 249.3 240.9 230.1 217.5 183.3 176.6 215.3 228.9 238.0 252.0 244.6 215.1 204.6 194.4 186.8 181.4 178.3 173.0 154.1 134.3 121.9 121.8 135.5 161.1 178.9 182.5 185.1 199.5 237.2 265.5 290.2 296.6 265.1 283.0 313.7 318.1 293.7 262.5 264.5 288.0 287.2 263.8 276.7 274.1 224.5 199.7 223.1 242.8 249.4 220.3 200.7 221.0 231.7 239.7 250.4 228.5 192.2 170.2 141.6 125.0 123.8 134.3 147.3 144.1 155.6 181.5 163.1 171.7 198.2 222.1 251.9 259.3 236.8 201.1 208.5 222.3 194.0 215.3 244.0 245.2 218.4 199.8 214.5 209.5 192.2 194.6 193.1 183.0 178.8 177.7 165.6 175.7 175.2 168.7 162.9 160.6 157.9 144.8 133.9 155.5 171.9 162.4 166.5
-9999.0 -9999.0 -9999.0 -9999.0 -9999.0 -9999.0 -9999.0 -9999.0 -9999.0 -9999.0 -9999.0 -9999.0 -9999.0 -9999.0 -9999.0 -9999.0 -9999.0 -9999.0 -9999.0 -9999.0 -9999.0 -9999.0 -9999.0 -9999.0 -9999.0 -9999.0 -9999.0 -9999.0 -9999.0 -9999.0 -9999.0 -9999.0 -9999.0 -9999.0 -9999.0 -9999.0 -9999.0 -9999.0 -9999.0 -9999.0 -9999.0 -9999.0 -9999.0 -9999.0 -9999.0 -9999.0 -9999.0 -9999.0 -9999.0 -9999.0 -9999.0 -9999.0 -9999.0 -9999.0 -9999.0 -9999.0 -9999.0 -9999.0 -9999.0 -9999.0 -9999.0 -9999.0 -9999.0 -9999.0 -9999.0 -9999.0 -9999.0 -9999.0 -9999.0 -9999.0 -9999.0 -9999.0 -9999.0 -9999.0 -9999.0 -9999.0 -9999.0 -9999.0 -9999.0 -9999.0 -9999.0 -9999.0 -9999.0 -9999.0 -9999.0 -9999.0 -9999.0 -9999.0 -9999.0 -9999.0 -9999.0 -9999.0 -9999.0 -9999.0 -9999.0 -9999.0 -9999.0 -9999.0 -9999.0 -9999.0 -9999.0 -9999.0 -9999.0 -9999.0 -9999.0 -9999.0 -9999.0 -9999.0 -9999.0 -9999.0 -9999.0 -9999.0 -9999.0 -9999.0 -9999.0 -9999.0 -9999.0 -9999.0 -9999.0 -9999.0 -9999.0 -9999.0 -9999.0 -9999.0 -9999.0 -9999.0 -9999.0 -9999.0 -9999.0 -9999.0 822.2 774.4 794.1 791.0 718.8 651.3 575.9 528.4 534.0 520.3 491.6 467.5 436.2 460.8 593.4 607.8 503.2 542.5 554.0 497.0 478.3 492.8 586.8 625.7 667.8 636.0 630.5 682.9 786.2 858.4 894.1 887.1 809.3 716.9 608.6 532.6 504.9 469.2 437.8 469.3 484.4 508.0 495.2 462.6 443.7 419.8 373.8 401.4 458.1 491.2 477.2 434.1 403.9 403.3 429.9 426.5 391.0 364.7 323.3 287.7 304.5 336.3 343.2 333.8 328.0 335.0 365.2 389.5 403.5 415.0 435.6 465.8 507.4 533.7 534.2 556.3 594.2 617.3 572.4 582.2 676.3 806.7 922.9 939.4 876.2 905.2 884.7 932.9 1033.1 1091.2 1120.6 1147.9 1158.4 1136.9 1135.0 1136.0 1103.7 1020.7 941.2 919.6 883.3 824.3 730.6 643.9 664.8 745.2 825.1 856.9 823.8 753.1 669.7 588.8 548.3 519.2 478.9 509.0 570.3 609.3 609.9 597.4 594.4 556.4 509.0 462.0 445.7 439.8 450.8 417.3 400.8 457.9 489.7 502.1 508.2 548.1 590.9 630.8 654.1 689.8 648.6 617.2 670.3 702.5 715.2 694.2 612.8 580.7 571.0 523.5 458.2 416.8 391.1 361.4 358.9 378.8 392.5 355.6 314.8 303.7 311.8 278.9 261.0 286.1 297.6 304.6 314.2 311.9 287.9 265.7 274.2 290.3 304.6 325.6 314.0 291.9 268.1 247.4 237.7 232.7 236.1 224.3 185.7 181.1 227.4 239.9 235.6 230.2 219.4 199.3 191.2 186.4 180.5 173.1 150.7 133.5 125.1 129.3 139.8 154.8 178.9 186.9 194.6 206.0 215.2 228.9 245.4 264.5 291.8 319.4 305.8 301.2 326.1 344.0 337.7 325.3 323.6 331.1 331.4 322.3 307.8 269.1 217.6 213.3 239.2 253.1 264.4 259.6 232.3 221.4 236.6 254.9 265.8 256.8 241.7 223.5 204.1 195.2 180.9 156.1 139.7 124.4 118.6 134.0 156.0 178.1 200.2 230.0 244.6 243.8 243.1 211.0 189.4 204.5 184.4 208.0 219.2 218.6 205.7 184.6 193.3 192.4 181.3 184.2 181.0 173.8 165.8 167.8 160.3 156.3 159.4 158.3 155.2 150.8 150.3 146.4 136.2 132.8 144.4 142.2 145.5
-9999.0 -9999.0 -9999.0 -9999.0 -9999.0 -9999.0 -9999.0 -9999.0 -9999.0 -9999.0 -9999.0 -9999.0 -9999.0 -9999.0 -9999.0 -9999.0 -9999.0 -9999.0 -9999.0 -9999.0 -9999.0 -9999.0 -9999.0 -9999.0 -9999.0 -9999.0 -9999.0 -9999.0 -9999.0 -9999.0 -9999.0 -9999.0 -9999.0 -9999.0 -9999.0 -9999.0 -9999.0 -9999.0 -9999.0 -9999.0 -9999.0 -9999.0 -9999.0 -9999.0 -9999.0 -9999.0 -9999.0 -9999.0 -9999.0 -9999.0 -9999.0 -9999.0 -9999.0 -9999.0 -9999.0 -9999.0 -9999.0 -9999.0 -9999.0 -9999.0 -9999.0 -9999.0 -9999.0 -9999.0 -9999.0 -9999.0 -9999.0 -9999.0 -9999.0 -9999.0 -9999.0 -9999.0 -9999.0 -9999.0 -9999.0 -9999.0 -9999.0 -9999.0 -9999.0 -9999.0 -9999.0 -9999.0 -9999.0 -9999.0 -9999.0 -9999.0 -9999.0 -9999.0 -9999.0 -9999.0 -9999.0 -9999.0 -9999.0 -9999.0 -9999.0 -9999.0 -9999.0 -9999.0 -9999.0 -9999.0 -9999.0 -9999.0 -9999.0 -9999.0 -9999.0 -9999.0 -9999.0 -9999.0 -9999.0 -9999.0 -9999.0 -9999.0 -9999.0 -9999.0 -9999.0 -9999.0 -9999.0 -9999.0 -9999.0 -9999.0 -9999.0 -9999.0 -9999.0 -9999.0 -9999.0 -9999.0 -9999.0 -9999.0 -9999.0 -9999.0 748.8 662.6 639.4 609.5 539.5 511.7 494.3 475.0 462.4 454.2 446.2 436.9 444.5 555.9 668.3 651.4 617.3 687.2 727.7 705.9 637.0 504.2 491.9 521.8 525.2 571.7 669.2 769.2 875.0 919.3 894.2 826.5 743.6 646.4 522.1 470.8 477.5 481.0 536.9 566.9 541.6 524.8 506.3 468.4 432.9 407.1 377.6 428.1 491.5 510.9 489.6 455.1 443.5 454.1 455.0 423.5 388.7 373.1 352.5 295.0 292.0 301.2 334.8 365.9 368.8 348.9 344.3 354.7 376.3 405.4 431.8 445.6 464.4 470.7 493.1 463.8 472.0 508.2 572.2 680.6 775.7 855.8 927.9 949.1 868.5 780.8 768.2 869.1 938.6 1006.0 1073.7 1136.4 1148.1 1151.7 1145.3 1143.5 1143.2 1095.3 1021.0 962.2 895.7 849.7 769.4 660.2 618.0 719.5 758.0 726.0 662.9 606.8 562.3 521.1 502.9 499.4 511.0 566.7 585.1 617.0 634.0 628.4 610.4 550.8 492.6 452.3 429.0 421.5 424.3 386.8 406.1 481.4 519.8 535.7 512.8 532.9 571.4 602.0 624.9 672.8 627.3 565.7 632.0 679.7 677.2 638.2 559.5 517.2 532.8 498.1 437.1 382.5 366.1 369.3 334.5 338.5 367.2 352.3 311.7 290.0 303.0 282.6 258.4 246.4 246.0 288.6 300.0 297.8 285.0 270.2 257.6 259.5 261.1 271.9 294.9 287.2 251.9 234.0 230.0 232.5 241.5 229.3 176.7 190.8 232.5 224.7 211.5 200.2 193.3 186.8 181.1 165.5 144.0 133.9 127.5 136.5 151.5 169.9 180.3 186.1 192.0 191.0 199.1 209.8 216.8 230.0 250.8 278.9 321.8 358.4 359.1 351.7 368.7 355.6 325.1 332.0 343.2 362.3 359.8 340.2 291.4 249.7 220.5 221.8 233.7 241.2 255.5 278.7 282.8 274.2 257.1 255.4 255.1 256.2 265.0 263.6 252.4 246.0 238.4 229.5 216.6 192.5 147.2 113.5 130.5 167.1 197.1 230.5 227.2 219.0 229.2 220.5 194.8 182.8 177.2 178.2 198.2 191.3 184.7 175.2 183.7 181.7 172.2 175.5 173.1 169.4 163.4 158.8 156.6 151.6 149.6 150.1 147.8 143.4 142.7 141.1 138.2 127.3 125.3 127.3 129.0
-9999.0 -9999.0 -9999.0 -9999.0 -9999.0 -9999.0 -9999.0 -9999.0 -9999.0 -9999.0 -9999.0 -9999.0 -9999.0 -9999.0 -9999.0 -9999.0 -9999.0 -9999.0 -9999.0 -9999.0 -9999.0 -9999.0 -9999.0 -9999.0 -9999.0 -9999.0 -9999.0 -9999.0 -9999.0 -9999.0 -9999.0 -9999.0 -9999.0 -9999.0 -9999.0 -9999.0 -9999.0 -9999.0 -9999.0 -9999.0 -9999.0 -9999.0 -9999.0 -9999.0 -9999.0 -9999.0 -9999.0 -9999.0 -9999.0 -9999.0 -9999.0 -9999.0 -9999.0 -9999.0 -9999.0 -9999.0 -9999.0 -9999.0 -9999.0 -9999.0 -9999.0 -9999.0 -9999.0 -9999.0 -9999.0 -9999.0 -9999.0 -9999.0 -9999.0 -9999.0 -9999.0 -9999.0 -9999.0 -9999.0 -9999.0 -9999.0 -9999.0 -9999.0 -9999.0 -9999.0 -9999.0 -9999.0 -9999.0 -9999.0 -9999.0 -9999.0 -9999.0 -9999.0 -9999.0 -9999.0 -9999.0 -9999.0 -9999.0 -9999.0 -9999.0 -9999.0 -9999.0 -9999.0 -9999.0 -9999.0 -9999.0 -9999.0 -9999.0 -9999.0 -9999.0 -9999.0 -9999.0 -9999.0 -9999.0 -9999.0 -9999.0 -9999.0 -9999.0 -9999.0 -9999.0 -9999.0 -9999.0 -9999.0 -9999.0 -9999.0 -9999.0 -9999.0 -9999.0 -9999.0 -9999.0 -9999.0 -9999.0 -9999.0 -9999.0 851.6 774.8 648.6 533.6 529.3 570.5 610.2 593.1 548.8 507.5 510.0 517.4 464.7 473.2 582.4 673.1 726.1 765.1 816.7 856.9 856.2 781.0 656.0 542.3 488.9 508.0 558.1 660.5 772.7 851.2 844.8 776.8 675.2 607.6 557.3 510.6 568.7 631.5 658.8 684.8 653.5 563.6 491.6 450.1 419.0 396.1 387.2 403.8 461.8 510.8 526.4 488.8 457.8 455.6 466.6 445.0 430.6 418.6 408.4 374.7 307.6 322.8 306.5 304.6 359.6 390.9 402.4 397.6 378.2 364.0 367.4 384.2 385.7 391.9 403.9 424.4 432.2 468.5 522.9 606.8 705.6 816.4 901.0 960.6 1009.8 953.5 802.8 703.6 726.3 801.5 880.9 927.6 988.3 1029.5 1080.0 1114.9 1144.1 1110.1 1017.9 927.1 871.4 801.9 753.2 694.0 618.7 572.6 588.2 597.0 565.2 559.4 577.5 606.1 603.7 571.0 566.8 576.2 592.6 596.2 585.7 575.9 592.9 611.9 562.1 496.2 451.1 422.8 408.6 382.5 366.9 420.5 477.7 519.5 528.1 488.1 506.3 551.2 581.3 617.8 652.8 580.7 498.7 566.5 600.1 588.4 553.6 485.2 449.7 460.0 433.8 395.1 361.9 335.4 353.1 332.2 299.4 311.9 320.3 298.5 281.0 288.2 289.9 292.5 260.6 236.4 277.0 282.4 280.6 277.6 272.8 270.1 256.2 211.1 207.1 224.9 252.6 234.1 224.9 230.4 229.2 227.6 216.7 171.8 178.5 202.9 198.1 190.9 180.1 159.5 147.0 140.0 135.9 136.6 152.5 159.8 175.2 181.2 186.1 188.6 192.8 197.9 197.8 208.1 218.2 235.4 264.0 288.1 306.0 339.4 350.1 338.2 344.5 358.9 332.9 295.3 305.0 322.5 320.0 328.8 336.3 321.3 295.0 269.6 259.8 272.9 280.7 280.8 282.6 284.0 282.8 243.3 224.3 241.4 255.7 260.1 262.4 260.7 232.3 219.2 233.1 230.7 217.6 197.3 138.2 110.4 132.3 190.9 214.2 213.9 204.7 194.2 196.6 202.3 193.2 181.0 166.7 168.7 173.8 171.8 163.4 173.8 174.0 164.3 167.9 166.6 162.1 158.6 154.3 149.3 148.8 143.4 148.1 144.5 137.6 132.9 132.3 135.7 134.4 128.6 121.4 117.4
-9999.0 -9999.0 -9999.0 -9999.0 -9999.0 -9999.0 -9999.0 -9999.0 -9999.0 -9999.0 -9999.0 -9999.0 -9999.0 -9999.0 -9999.0 -9999.0 -9999.0 -9999.0 -9999.0 -9999.0 -9999.0 -9999.0 -9999.0 -9999.0 -9999.0 -9999.0 -9999.0 -9999.0 -9999.0 -9999.0 -9999.0 -9999.0 -9999.0 -9999.0 -9999.0 -9999.0 -9999.0 -9999.0 -9999.0 -9999.0 -9999.0 -9999.0 -9999.0 -9999.0 -9999.0 -9999.0 -9999.0 -9999.0 -9999.0 -9999.0 -9999.0 -9999.0 -9999.0 -9999.0 -9999.0 -9999.0 -9999.0 -9999.0 -9999.0 -9999.0 -9999.0 -9999.0 -9999.0 -9999.0 -9999.0 -9999.0 -9999.0 -9999.0 -9999.0 -9999.0 -9999.0 -9999.0 -9999.0 -9999.0 -9999.0 -9999.0 -9999.0 -9999.0 -9999.0 -9999.0 -9999.0 -9999.0 -9999.0 -9999.0 -9999.0 -9999.0 -9999.0 -9999.0 -9999.0 -9999.0 -9999.0 -9999.0 -9999.0 -9999.0 -9999.0 -9999.0 -9999.0 -9999.0 -9999.0 -9999.0 -9999.0 -9999.0 -9999.0 -9999.0 -9999.0 -9999.0 -9999.0 -9999.0 -9999.0 -9999.0 -9999.0 -9999.0 -9999.0 -9999.0 -9999.0 -9999.0 -9999.0 -9999.0 -9999.0 -9999.0 -9999.0 -9999.0 -9999.0 -9999.0 -9999.0 -9999.0 -9999.0 -9999.0 -9999.0 873.0 758.8 600.3 546.5 667.5 705.6 651.5 585.4 554.3 545.4 564.2 565.5 480.2 478.5 573.9 662.4 763.6 839.3 899.7 942.8 927.1 850.0 731.0 577.2 547.7 625.1 556.3 536.9 641.1 749.4 778.3 739.8 660.2 637.3 600.3 614.1 700.1 752.3 751.6 696.1 621.9 547.5 459.1 419.3 429.0 423.7 415.3 453.0 493.4 529.6 535.3 492.2 458.5 433.9 428.4 417.1 410.9 419.4 415.9 368.7 316.2 343.8 329.3 303.0 336.4 377.9 401.1 429.3 441.6 432.5 410.7 398.9 394.9 412.9 427.5 470.8 506.6 520.8 537.4 548.7 624.9 724.0 822.6 915.2 971.0 972.7 901.3 761.3 670.0 736.8 795.3 836.0 863.5 877.4 948.7 1060.8 1085.6 1014.0 900.0 814.6 750.1 670.9 606.4 591.5 600.3 621.1 651.4 629.2 599.2 701.5 762.9 762.9 686.5 607.0 597.2 598.9 564.9 547.9 539.0 497.6 525.9 564.8 557.0 495.8 453.6 446.4 403.3 352.2 397.8 458.7 475.2 500.3 497.7 462.3 488.4 535.5 562.6 595.2 622.8 578.7 470.1 445.9 474.8 488.9 451.5 385.4 355.5 343.2 321.7 307.9 294.9 282.0 280.0 272.5 260.2 254.7 254.1 250.4 239.4 234.7 237.3 251.7 243.8 225.8 261.5 273.5 285.3 296.7 295.4 302.9 304.0 278.7 247.0 211.0 199.0 200.2 193.8 212.4 215.9 206.6 200.1 169.8 155.5 162.9 157.9 147.2 140.7 139.9 150.2 155.3 149.1 169.1 181.7 183.0 184.6 189.2 191.5 194.4 199.9 209.1 215.5 240.4 266.6 287.0 316.6 338.0 342.3 330.5 305.4 304.3 331.5 341.9 319.9 286.6 280.2 289.4 289.3 307.6 324.0 339.3 321.8 298.2 294.7 300.2 296.8 265.2 235.7 234.0 242.0 218.2 205.0 220.5 226.8 234.0 250.6 264.8 245.4 212.6 204.2 195.5 188.2 192.1 178.3 136.0 111.3 160.2 196.5 197.9 200.7 187.4 178.2 185.5 183.0 182.6 183.8 178.1 166.5 159.1 151.0 151.1 160.9 159.7 156.2 158.9 155.0 149.8 144.9 142.3 142.7 139.8 139.1 139.9 138.4 132.3 126.1 126.2 130.1 129.3 123.1 115.6
-9999.0 -9999.0 -9999.0 -9999.0 -9999.0 -9999.0 -9999.0 -9999.0 -9999.0 -9999.0 -9999.0 -9999.0 -9999.0 -9999.0 -9999.0 -9999.0 -9999.0 -9999.0 -9999.0 -9999.0 -9999.0 -9999.0 -9999.0 -9999.0 -9999.0 -9999.0 -9999.0 -9999.0 -9999.0 -9999.0 -9999.0 -9999.0 -9999.0 -9999.0 -9999.0 -9999.0 -9999.0 -9999.0 -9999.0 -9999.0 -9999.0 -9999.0 -9999.0 -9999.0 -9999.0 -9999.0 -9999.0 -9999.0 -9999.0 -9999.0 -9999.0 -9999.0 -9999.0 -9999.0 -9999.0 -9999.0 -9999.0 -9999.0 -9999.0 -9999.0 -9999.0 -9999.0 -9999.0 -9999.0 -9999.0 -9999.0 -9999.0 -9999.0 -9999.0 -9999.0 -9999.0 -9999.0 -9999.0 -9999.0 -9999.0 -9999.0 -9999.0 -9999.0 -9999.0 -9999.0 -9999.0 -9999.0 -9999.0 -9999.0 -9999.0 -9999.0 -9999.0 -9999.0 -9999.0 -9999.0 -9999.0 -9999.0 -9999.0 -9999.0 -9999.0 -9999.0 -9999.0 -9999.0 -9999.0 -9999.0 -9999.0 -9999.0 -9999.0 -9999.0 -9999.0 -9999.0 -9999.0 -9999.0 -9999.0 -9999.0 -9999.0 -9999.0 -9999.0 -9999.0 -9999.0 -9999.0 -9999.0 -9999.0 -9999.0 -9999.0 -9999.0 -9999.0 -9999.0 -9999.0 -9999.0 -9999.0 -9999.0 -9999.0 937.7 886.4 761.2 605.6 602.3 759.3 751.0 668.5 638.2 615.9 604.4 598.8 572.1 490.5 472.2 563.1 658.4 766.4 857.1 929.6 956.0 906.3 788.1 639.8 588.3 680.7 783.7 695.2 556.7 550.1 681.0 730.5 726.5 735.9 715.0 658.1 711.9 785.5 758.0 670.4 598.4 541.3 473.4 433.5 466.6 483.4 453.1 455.9 473.6 507.7 534.6 520.5 483.8 462.8 446.1 425.2 403.9 389.6 388.7 385.5 340.8 321.5 353.5 355.4 319.4 317.2 370.9 402.4 419.7 428.9 440.7 439.4 444.3 455.5 451.0 449.2 488.0 541.7 572.6 607.8 591.9 592.4 671.0 786.8 892.9 932.3 903.6 832.4 761.8 655.8 671.7 724.9 748.8 755.7 786.7 875.4 930.2 922.7 877.5 807.5 729.9 654.5 607.8 630.5 687.4 708.5 725.9 738.3 679.4 692.5 801.7 821.1 763.8 664.6 583.6 560.6 561.6 534.6 510.4 502.5 450.0 466.8 511.6 534.4 501.7 462.0 462.4 421.2 347.0 396.4 433.6 456.0 486.0 483.9 450.2 472.8 511.8 540.1 562.8 597.3 609.4 544.4 441.0 398.3 385.9 370.2 359.1 358.2 361.0 356.6 361.3 347.4 330.9 324.1 318.6 316.7 308.6 289.7 281.8 271.3 262.3 241.1 225.9 216.7 218.0 249.8 267.7 276.1 278.2 279.5 298.1 314.4 314.9 306.3 276.3 223.9 203.1 182.5 176.4 197.0 196.8 188.6 163.1 145.6 145.3 147.7 151.5 168.6 176.9 185.4 187.3 186.9 189.4 190.5 191.6 193.0 195.8 204.6 215.5 218.5 224.6 234.3 256.9 288.2 319.5 328.6 323.7 314.8 298.1 273.5 290.1 313.5 318.3 299.7 267.6 259.7 276.6 291.7 301.5 303.5 293.7 279.9 274.3 271.3 281.9 287.2 265.9 225.7 203.9 216.0 212.3 183.8 185.4 193.6 197.6 206.4 216.7 213.2 194.1 188.0 178.4 170.2 163.1 160.4 151.2 110.7 127.4 158.9 161.5 171.6 167.0 164.0 172.3 171.2 168.7 170.4 174.2 170.7 164.4 145.5 109.0 109.8 133.5 148.4 148.4 146.0 141.9 137.2 134.8 135.1 134.7 133.5 129.3 126.9 125.6 122.3 117.9 117.4 120.6 115.7 114.0
-9999.0 -9999.0 -9999.0 -9999.0 -9999.0 -9999.0 -9999.0 -9999.0 -9999.0 -9999.0 -9999.0 -9999.0 -9999.0 -9999.0 -9999.0 -9999.0 -9999.0 -9999.0 -9999.0 -9999.0 -9999.0 -9999.0 -9999.0 -9999.0 -9999.0 -9999.0 -9999.0 -9999.0 -9999.0 -9999.0 -9999.0 -9999.0 -9999.0 -9999.0 -9999.0 -9999.0 -9999.0 -9999.0 -9999.0 -9999.0 -9999.0 -9999.0 -9999.0 -9999.0 -9999.0 -9999.0 -9999.0 -9999.0 -9999.0 -9999.0 -9999.0 -9999.0 -9999.0 -9999.0 -9999.0 -9999.0 -9999.0 -9999.0 -9999.0 -9999.0 -9999.0 -9999.0 -9999.0 -9999.0 -9999.0 -9999.0 -9999.0 -9999.0 -9999.0 -9999.0 -9999.0 -9999.0 -9999.0 -9999.0 -9999.0 -9999.0 -9999.0 -9999.0 -9999.0 -9999.0 -9999.0 -9999.0 -9999.0 -9999.0 -9999.0 -9999.0 -9999.0 -9999.0 -9999.0 -9999.0 -9999.0 -9999.0 -9999.0 -9999.0 -9999.0 -9999.0 -9999.0 -9999.0 -9999.0 -9999.0 -9999.0 -9999.0 -9999.0 -9999.0 -9999.0 -9999.0 -9999.0 -9999.0 -9999.0 -9999.0 -9999.0 -9999.0 -9999.0 -9999.0 -9999.0 -9999.0 -9999.0 -9999.0 -9999.0 -9999.0 -9999.0 -9999.0 -9999.0 -9999.0 -9999.0 1062.8 991.2 932.3 842.3 740.2 657.8 608.5 663.8 822.0 855.7 796.6 759.1 721.4 693.3 652.4 587.9 522.2 473.4 518.0 613.0 713.8 821.3 916.7 952.8 925.4 799.8 682.0 740.5 823.4 804.8 688.6 625.7 555.5 571.4 639.8 704.5 781.0 793.3 766.1 796.9 773.6 689.7 606.5 543.5 484.0 463.4 499.8 528.3 510.6 479.0 478.8 503.1 519.3 496.7 469.7 449.0 447.4 455.3 449.1 427.0 399.9 358.4 332.8 329.5 356.3 373.2 366.4 333.8 310.2 344.6 377.0 390.5 404.1 404.7 402.1 414.6 445.3 481.2 487.0 504.4 543.7 572.2 580.3 584.8 557.9 617.5 730.2 835.3 892.8 906.1 830.2 731.4 640.2 637.6 683.8 717.9 752.7 828.3 923.9 924.8 900.2 847.7 780.2 673.6 626.4 684.0 771.5 794.1 757.6 729.6 703.7 700.0 763.6 793.5 761.0 696.2 625.9 540.0 509.0 518.6 502.6 482.7 478.4 433.4 418.8 458.3 462.6 450.1 423.4 438.2 419.3 334.0 369.3 432.8 466.0 466.0 439.2 427.0 452.3 490.7 518.7 532.0 560.5 555.6 507.9 449.7 397.5 406.5 442.8 440.4 442.6 436.2 427.4 422.0 390.9 355.9 335.5 332.1 324.9 308.5 304.8 320.0 308.8 302.6 288.2 273.3 248.9 214.3 214.1 232.3 261.0 259.8 264.5 282.7 287.0 284.5 281.1 257.7 237.2 226.6 203.2 171.2 162.3 153.8 152.7 152.6 161.3 177.6 189.7 190.1 193.0 193.6 193.6 194.0 194.8 196.2 197.7 200.3 205.9 219.3 238.0 250.5 257.8 268.6 285.0 305.1 324.7 332.1 306.8 277.3 278.5 268.3 262.7 287.6 303.1 293.3 266.5 246.6 263.0 282.1 291.8 271.0 248.8 250.8 253.7 244.2 253.1 265.5 262.1 247.4 228.5 196.5 183.6 178.8 169.9 165.6 160.3 162.1 161.6 159.8 157.3 153.3 154.5 153.3 148.6 146.0 145.2 143.4 111.8 111.5 137.2 140.0 139.4 142.1 144.0 153.0 162.5 162.3 161.1 159.3 155.6 157.6 155.6 139.0 111.8 103.8 143.8 143.6 137.4 134.1 131.6 128.6 126.7 126.0 125.0 123.9 119.6 116.7 114.7 110.6 106.8 104.3 102.3 103.0
-9999.0 -9999.0 -9999.0 -9999.0 -9999.0 -9999.0 -9999.0 -9999.0 -9999.0 -9999.0 -9999.0 -9999.0 -9999.0 -9999.0 -9999.0 -9999.0 -9999.0 -9999.0 -9999.0 -9999.0 -9999.0 -9999.0 -9999.0 -9999.0 -9999.0 -9999.0 -9999.0 -9999.0 -9999.0 -9999.0 -9999.0 -9999.0 -9999.0 -9999.0 -9999.0 -9999.0 -9999.0 -9999.0 -9999.0 -9999.0 -9999.0 -9999.0 -9999.0 -9999.0 -9999.0 -9999.0 -9999.0 -9999.0 -9999.0 -9999.0 -9999.0 -9999.0 -9999.0 -9999.0 -9999.0 -9999.0 -9999.0 -9999.0 -9999.0 -9999.0 -9999.0 -9999.0 -9999.0 -9999.0 -9999.0 -9999.0 -9999.0 -9999.0 -9999.0 -9999.0 -9999.0 -9999.0 -9999.0 -9999.0 -9999.0 -9999.0 -9999.0 -9999.0 -9999.0 -9999.0 -9999.0 -9999.0 -9999.0 -9999.0 -9999.0 -9999.0 -9999.0 -9999.0 -9999.0 -9999.0 -9999.0 -9999.0 -9999.0 -9999.0 -9999.0 -9999.0 -9999.0 -9999.0 -9999.0 -9999.0 -9999.0 -9999.0 -9999.0 -9999.0 -9999.0 -9999.0 -9999.0 -9999.0 -9999.0 -9999.0 -9999.0 -9999.0 -9999.0 -9999.0 -9999.0 -9999.0 -9999.0 -9999.0 -9999.0 -9999.0 -9999.0 -9999.0 -9999.0 -9999.0 1109.6 1035.3 988.2 936.3 865.2 783.9 722.9 703.0 754.2 831.4 924.8 952.3 924.4 859.3 771.5 687.9 626.2 585.6 520.4 484.4 530.4 671.1 796.1 906.7 961.8 934.3 840.5 832.3 902.7 956.6 879.6 812.8 775.0 644.0 562.0 626.4 742.1 831.6 887.3 873.6 815.8 748.2 684.1 617.9 542.5 485.0 559.8 626.5 571.1 526.7 519.6 514.5 503.0 498.1 476.0 448.0 425.7 420.3 417.9 388.8 371.5 359.5 336.7 353.6 390.9 414.0 393.1 372.6 332.4 316.2 315.5 334.3 375.7 386.8 398.4 412.9 436.6 465.9 494.8 499.3 493.0 503.4 510.2 489.5 501.2 521.7 579.2 656.9 728.0 800.0 852.0 796.1 701.7 630.2 690.1 772.7 817.9 875.0 959.1 1032.6 1029.2 997.4 913.8 792.4 654.4 681.0 820.6 857.6 805.4 756.1 730.1 716.5 699.8 729.0 751.4 732.7 689.5 620.2 514.0 461.5 452.9 440.5 430.8 422.5 398.7 365.5 364.8 359.8 355.1 351.6 372.3 368.8 329.0 330.4 400.6 418.8 403.2 411.9 435.7 459.2 482.8 495.2 495.9 495.9 480.6 487.6 504.8 475.7 483.2 506.1 506.8 500.4 496.6 490.9 461.9 411.1 363.6 316.1 292.5 283.9 279.6 297.1 311.9 288.8 279.4 282.2 281.5 279.1 249.2 216.0 202.8 220.4 240.5 261.1 281.3 277.9 260.0 249.5 235.8 219.4 211.5 189.7 160.3 155.0 160.8 175.0 187.8 197.6 199.7 199.4 199.2 199.4 199.7 199.4 199.3 200.7 204.9 211.2 217.7 228.8 246.9 252.1 252.5 260.4 271.7 299.5 332.0 332.1 324.5 291.0 256.7 251.6 254.4 267.2 282.9 287.1 266.3 241.5 241.0 270.8 291.7 277.0 232.7 220.7 228.4 237.1 252.5 266.1 260.9 223.5 194.7 185.2 175.1 167.2 164.5 161.5 158.0 156.2 154.9 152.4 150.9 150.0 148.7 147.6 145.5 145.0 143.4 142.6 141.6 119.2  99.9 103.1 115.4 133.9 135.2 133.3 133.1 137.2 141.4 143.9 150.4 151.4 150.8 147.7 147.5 130.5  95.1 129.5 141.2 136.5 130.3 129.5 126.5 123.1 120.9 118.9 115.8 112.3 110.7 108.4 104.8 103.2 102.5 101.1 100.7
-9999.0 -9999.0 -9999.0 -9999.0 -9999.0 -9999.0 -9999.0 -9999.0 -9999.0 -9999.0 -9999.0 -9999.0 -9999.0 -9999.0 -9999.0 -9999.0 -9999.0 -9999.0 -9999.0 -9999.0 -9999.0 -9999.0 -9999.0 -9999.0 -9999.0 -9999.0 -9999.0 -9999.0 -9999.0 -9999.0 -9999.0 -9999.0 -9999.0 -9999.0 -9999.0 -9999.0 -9999.0 -9999.0 -9999.0 -9999.0 -9999.0 -9999.0 -9999.0 -9999.0 -9999.0 -9999.0 -9999.0 -9999.0 -9999.0 -9999.0 -9999.0 -9999.0 -9999.0 -9999.0 -9999.0 -9999.0 -9999.0 -9999.0 -9999.0 -9999.0 -9999.0 -9999.0 -9999.0 -9999.0 -9999.0 -9999.0 -9999.0 -9999.0 -9999.0 -9999.0 -9999.0 -9999.0 -9999.0 -9999.0 -9999.0 -9999.0 -9999.0 -9999.0 -9999.0 -9999.0 -9999.0 -9999.0 -9999.0 -9999.0 -9999.0 -9999.0 -9999.0 -9999.0 -9999.0 -9999.0 -9999.0 -9999.0 -9999.0 -9999.0 -9999.0 -9999.0 -9999.0 -9999.0 -9999.0 -9999.0 -9999.0 -9999.0 -9999.0 -9999.0 -9999.0 -9999.0 -9999.0 -9999.0 -9999.0 -9999.0 -9999.0 -9999.0 -9999.0 -9999.0 -9999.0 -9999.0 -9999.0 -9999.0 -9999.0 -9999.0 -9999.0 -9999.0 -9999.0 -9999.0 -9999.0 1047.9 1052.1 1048.1 1037.6 968.1 871.0 799.0 794.0 842.4 894.3 893.0 864.9 848.9 775.3 664.3 594.6 553.0 521.3 508.6 502.2 634.7 770.8 887.9 963.0 976.1 976.7 1017.8 1062.3 1087.7 1032.0 970.2 863.0 723.7 598.3 607.7 750.6 858.9 921.4 896.0 820.6 707.8 623.1 613.8 584.5 556.3 664.5 664.3 572.8 516.3 505.9 500.8 476.8 483.1 483.7 455.5 427.2 402.2 390.8 366.4 365.1 347.6 351.6 403.4 438.5 436.0 410.5 385.6 354.5 353.0 339.5 318.8 353.0 382.4 417.7 443.6 462.8 469.3 470.1 458.9 413.9 412.6 424.6 443.4 478.2 503.4 533.7 569.2 627.3 705.8 701.8 603.8 575.4 670.3 803.6 889.0 955.2 1016.1 1043.2 1017.7 961.5 900.5 815.5 727.2 653.6 727.6 872.7 887.2 854.8 800.5 734.2 695.2 664.7 679.3 712.2 715.6 704.8 648.1 537.2 445.7 431.5 425.3 407.7 416.8 419.2 416.4 407.9 390.6 373.2 372.9 366.5 350.7 328.9 313.7 338.8 392.7 420.1 435.7 443.8 447.1 462.2 477.1 478.1 479.8 497.5 518.9 508.7 489.4 516.4 559.6 596.7 585.0 576.5 537.3 472.6 415.4 365.2 322.7 292.5 270.5 275.9 294.5 297.1 282.5 266.5 269.6 278.5 283.5 278.1 261.3 223.5 200.2 201.8 241.5 265.2 256.8 243.3 228.4 216.1 208.8 181.8 159.1 163.1 220.9 230.9 222.1 219.1 213.5 208.3 205.5 204.3 205.2 209.2 214.0 216.9 225.8 226.6 235.4 251.3 266.5 270.3 260.5 246.4 250.3 255.6 269.9 277.1 279.8 281.7 269.5 245.1 247.4 275.8 303.4 303.0 274.2 240.8 234.1 253.4 277.1 282.5 249.2 213.3 213.8 226.3 241.4 257.1 257.3 233.0 194.0 174.5 170.2 163.5 160.2 160.5 158.1 155.8 153.4 152.8 150.6 148.5 148.3 147.7 146.3 144.9 143.4 142.4 141.9 139.7 135.3 121.8 107.8  97.8 103.1 116.9 129.4 128.8 130.4 129.7 129.4 129.9 131.6 135.7 136.9 135.3 128.2  92.4 105.4 131.2 128.5 124.4 122.2 117.9 114.4 114.4 113.0 111.9 109.6 108.0 105.9 104.0 103.3 101.8  99.5  99.3
-9999.0 -9999.0 -9999.0 -9999.0 -9999.0 -9999.0 -9999.0 -9999.0 -9999.0 -9999.0 -9999.0 -9999.0 -9999.0 -9999.0 -9999.0 -9999.0 -9999.0 -9999.0 -9999.0 -9999.0 -9999.0 -9999.0 -9999.0 -9999.0 -9999.0 -9999.0 -9999.0 -9999.0 -9999.0 -9999.0 -9999.0 -9999.0 -9999.0 -9999.0 -9999.0 -9999.0 -9999.0 -9999.0 -9999.0 -9999.0 -9999.0 -9999.0 -9999.0 -9999.0 -9999.0 -9999.0 -9999.0 -9999.0 -9999.0 -9999.0 -9999.0 -9999.0 -9999.0 -9999.0 -9999.0 -9999.0 -9999.0 -9999.0 -9999.0 -9999.0 -9999.0 -9999.0 -9999.0 -9999.0 -9999.0 -9999.0 -9999.0 -9999.0 -9999.0 -9999.0 -9999.0 -9999.0 -9999.0 -9999.0 -9999.0 -9999.0 -9999.0 -9999.0 -9999.0 -9999.0 -9999.0 -9999.0 -9999.0 -9999.0 -9999.0 -9999.0 -9999.0 -9999.0 -9999.0 -9999.0 -9999.0 -9999.0 -9999.0 -9999.0 -9999.0 -9999.0 -9999.0 -9999.0 -9999.0 -9999.0 -9999.0 -9999.0 -9999.0 -9999.0 -9999.0 -9999.0 -9999.0 -9999.0 -9999.0 -9999.0 -9999.0 -9999.0 -9999.0 -9999.0 -9999.0 -9999.0 -9999.0 -9999.0 -9999.0 -9999.0 -9999.0 -9999.0 -9999.0 -9999.0 -9999.0 -9999.0 1123.0 1170.1 1169.0 1123.7 1052.6 981.2 916.4 893.9 923.7 893.0 825.0 730.6 664.2 602.3 575.7 573.8 574.5 568.6 506.4 587.6 728.7 855.8 961.5 1020.5 1053.1 1128.7 1156.4 1151.7 1112.1 994.8 833.3 701.0 627.7 633.6 767.6 886.2 930.0 875.8 872.8 810.5 771.1 810.1 770.4 692.4 703.8 650.5 584.1 509.7 464.7 452.7 443.7 446.2 432.3 416.2 406.2 431.1 441.3 442.0 424.2 405.3 405.8 432.3 461.1 441.9 414.3 390.8 378.7 379.1 353.8 320.8 327.1 349.5 400.9 432.6 446.2 437.5 414.2 399.8 389.0 425.8 473.2 526.5 550.6 535.1 547.6 577.0 600.6 585.8 545.3 542.3 567.1 655.6 766.4 867.1 960.3 1007.4 990.4 955.9 924.6 894.9 839.3 773.0 673.8 767.7 897.9 889.1 816.6 726.5 660.9 621.1 620.2 620.9 641.1 644.0 644.2 567.7 470.8 461.0 509.3 501.8 481.3 498.6 498.1 487.0 471.2 447.9 436.7 450.5 459.7 438.4 377.3 318.4 328.0 411.1 413.3 409.8 433.2 456.1 478.2 471.7 446.2 452.1 458.4 465.9 454.3 467.6 507.5 543.8 590.6 578.4 547.1 510.4 458.9 408.1 362.0 327.3 303.2 273.7 263.3 273.3 279.7 281.4 262.2 267.3 280.5 281.4 277.8 267.3 253.6 230.3 197.5 194.8 222.8 226.2 218.6 212.9 204.4 183.2 157.7 163.8 198.1 256.6 265.9 259.9 259.9 251.6 239.4 218.5 210.0 213.1 227.7 243.4 256.5 270.0 266.5 263.0 266.5 275.1 279.8 273.9 250.9 237.8 235.2 239.1 243.5 246.4 247.3 237.7 244.6 270.1 290.0 303.7 290.0 249.6 224.7 250.7 276.4 278.0 255.9 231.2 211.6 202.7 213.3 223.8 222.7 211.5 190.0 171.3 166.7 164.7 162.2 159.4 159.1 156.8 154.4 152.8 151.8 150.8 147.7 146.9 147.0 146.5 145.3 143.5 142.8 142.3 139.9 138.8 138.0 130.9 107.0 100.2  95.4  96.9  97.0 115.3 127.7 126.8 124.3 123.8 124.1 123.9 123.4 121.3  93.6  89.1 117.2 117.8 117.6 115.7 113.6 111.3 108.3 108.6 108.7 107.3 105.5 104.2 102.9 102.4 100.9  98.8  98.2
-9999.0 -9999.0 -9999.0 -9999.0 -9999.0 -9999.0 -9999.0 -9999.0 -9999.0 -9999.0 -9999.0 -9999.0 -9999.0 -9999.0 -9999.0 -9999.0 -9999.0 -9999.0 -9999.0 -9999.0 -9999.0 -9999.0 -9999.0 -9999.0 -9999.0 -9999.0 -9999.0 -9999.0 -9999.0 -9999.0 -9999.0 -9999.0 -9999.0 -9999.0 -9999.0 -9999.0 -9999.0 -9999.0 -9999.0 -9999.0 -9999.0 -9999.0 -9999.0 -9999.0 -9999.0 -9999.0 -9999.0 -9999.0 -9999.0 -9999.0 -9999.0 -9999.0 -9999.0 -9999.0 -9999.0 -9999.0 -9999.0 -9999.0 -9999.0 -9999.0 -9999.0 -9999.0 -9999.0 -9999.0 -9999.0 -9999.0 -9999.0 -9999.0 -9999.0 -9999.0 -9999.0 -9999.0 -9999.0 -9999.0 -9999.0 -9999.0 -9999.0 -9999.0 -9999.0 -9999.0 -9999.0 -9999.0 -9999.0 -9999.0 -9999.0 -9999.0 -9999.0 -9999.0 -9999.0 -9999.0 -9999.0 -9999.0 -9999.0 -9999.0 -9999.0 -9999.0 -9999.0 -9999.0 -9999.0 -9999.0 -9999.0 -9999.0 -9999.0 -9999.0 -9999.0 -9999.0 -9999.0 -9999.0 -9999.0 -9999.0 -9999.0 -9999.0 -9999.0 -9999.0 -9999.0 -9999.0 -9999.0 -9999.0 -9999.0 -9999.0 -9999.0 -9999.0 -9999.0 -9999.0 -9999.0 -9999.0 -9999.0 -9999.0 1270.4 1259.4 1225.4 1185.4 1110.0 1055.3 1053.1 1014.4 950.5 841.1 769.7 762.4 747.7 717.7 674.3 623.5 536.6 535.3 676.7 816.0 907.0 919.5 954.0 1043.3 1122.4 1174.2 1150.5 1035.4 898.8 825.6 749.1 685.2 770.4 909.5 877.4 798.3 879.9 885.4 890.9 906.4 871.6 812.4 706.3 593.9 531.5 492.9 463.4 445.2 439.3 430.0 446.0 444.4 420.4 454.9 488.8 465.9 435.7 453.1 455.7 466.4 474.8 450.2 425.0 400.6 383.4 384.0 352.5 329.5 353.7 349.6 358.2 373.6 381.6 373.5 374.5 389.7 417.2 445.3 471.5 509.9 559.7 598.2 590.2 576.0 535.1 503.6 559.7 651.2 631.9 588.8 620.3 698.2 797.1 905.6 951.8 981.9 977.0 923.5 844.0 754.9 686.9 798.4 884.0 834.6 756.1 665.3 619.3 576.9 550.8 543.6 543.2 530.8 505.5 492.9 502.7 533.8 553.1 539.1 532.0 523.2 534.2 500.8 465.7 450.2 431.7 437.0 445.8 425.0 381.5 329.9 307.8 352.8 386.0 419.4 450.2 474.9 503.1 476.7 426.9 413.8 416.1 424.2 417.3 449.3 468.8 482.1 504.0 496.9 469.9 450.5 420.8 382.7 344.2 307.2 296.5 281.7 260.3 257.5 262.8 262.1 250.9 249.4 247.2 246.7 246.0 239.3 233.3 229.1 213.8 185.7 190.9 217.4 214.4 196.2 170.6 158.9 168.5 205.3 231.3 240.1 269.9 303.7 310.9 293.3 264.3 231.8 219.9 221.8 239.1 268.6 298.5 307.3 293.7 267.5 254.6 259.2 266.2 274.9 275.2 262.9 245.7 228.8 224.5 228.1 225.5 231.8 269.2 296.2 297.4 276.0 258.7 241.8 225.4 226.3 242.3 228.9 198.2 186.8 200.8 201.0 192.0 197.1 196.4 185.1 176.4 169.1 160.4 156.3 147.1 145.2 147.4 149.5 138.4 139.7 135.3 122.7 127.8 138.2 138.6 138.9 143.3 144.4 144.2 144.2 142.3 141.3 139.7 138.1 136.2 130.3 120.4 117.7  96.3  92.3  96.0  95.8  92.1  92.6 105.1 114.2  97.5  95.3  87.5  80.5  92.1  93.7 100.9 110.9 110.5 108.8 107.1 105.6 104.6 102.7 102.9 102.2 101.2 101.1  99.8  98.8  96.6
-9999.0 -9999.0 -9999.0 -9999.0 -9999.0 -9999.0 -9999.0 -9999.0 -9999.0 -9999.0 -9999.0 -9999.0 -9999.0 -9999.0 -9999.0 -9999.0 -9999.0 -9999.0 -9999.0 -9999.0 -9999.0 -9999.0 -9999.0 -9999.0 -9999.0 -9999.0 -9999.0 -9999.0 -9999.0 -9999.0 -9999.0 -9999.0 -9999.0 -9999.0 -9999.0 -9999.0 -9999.0 -9999.0 -9999.0 -9999.0 -9999.0 -9999.0 -9999.0 -9999.0 -9999.0 -9999.0 -9999.0 -9999.0 -9999.0 -9999.0 -9999.0 -9999.0 -9999.0 -9999.0 -9999.0 -9999.0 -9999.0 -9999.0 -9999.0 -9999.0 -9999.0 -9999.0 -9999.0 -9999.0 -9999.0 -9999.0 -9999.0 -9999.0 -9999.0 -9999.0 -9999.0 -9999.0 -9999.0 -9999.0 -9999.0 -9999.0 -9999.0 -9999.0 -9999.0 -9999.0 -9999.0 -9999.0 -9999.0 -9999.0 -9999.0 -9999.0 -9999.0 -9999.0 -9999.0 -9999.0 -9999.0 -9999.0 -9999.0 -9999.0 -9999.0 -9999.0 -9999.0 -9999.0 -9999.0 -9999.0 -9999.0 -9999.0 -9999.0 -9999.0 -9999.0 -9999.0 -9999.0 -9999.0 -9999.0 -9999.0 -9999.0 -9999.0 -9999.0 -9999.0 -9999.0 -9999.0 -9999.0 -9999.0 -9999.0 -9999.0 -9999.0 -9999.0 -9999.0 -9999.0 -9999.0 -9999.0 -9999.0 -9999.0 -9999.0 -9999.0 1348.1 1301.1 1241.2 1228.4 1217.2 1168.9 1099.3 1011.4 932.5 933.4 927.6 859.1 748.4 668.3 595.7 522.0 621.9 746.0 719.1 699.0 791.6 933.3 1094.4 1167.3 1165.2 1076.2 995.0 927.0 841.6 752.1 792.1 881.4 795.4 747.3 863.5 934.6 937.9 958.0 927.8 855.7 744.9 645.9 581.3 546.1 497.0 472.2 458.7 453.9 493.8 490.9 440.1 448.6 492.7 476.6 479.8 508.2 490.0 464.1 460.1 446.2 428.9 400.3 390.9 403.4 362.3 333.8 370.6 380.5 375.1 372.6 384.3 402.0 433.0 460.7 480.9 490.3 496.9 513.4 544.4 590.1 594.5 543.1 486.1 510.6 565.5 625.2 700.9 723.4 699.0 716.2 816.8 926.7 984.5 1009.9 1007.1 971.1 922.1 783.8 734.4 852.5 906.1 883.7 834.9 761.5 707.3 671.5 593.2 536.2 510.2 521.5 576.7 624.5 602.2 575.7 563.8 533.4 526.4 511.0 495.5 493.0 454.2 435.3 424.1 403.1 408.5 403.7 383.3 365.6 309.8 315.4 387.6 402.7 428.9 454.5 474.6 461.3 419.5 385.9 377.6 382.6 405.0 424.4 424.4 428.5 435.4 433.5 410.0 389.1 378.3 349.6 322.9 292.4 272.4 274.0 270.1 253.8 250.2 247.5 243.4 240.9 237.3 234.9 231.8 229.3 225.2 220.9 214.4 182.5 178.0 190.3 175.7 161.7 163.5 187.7 226.4 249.6 264.2 258.4 274.7 319.9 358.7 328.4 285.0 256.0 241.2 241.3 261.9 289.1 303.8 300.9 297.5 280.3 254.6 246.3 256.5 277.8 300.2 296.4 281.1 260.0 240.1 223.0 217.5 239.3 262.0 256.6 246.7 238.7 232.1 229.8 229.8 217.5 205.5 176.9 170.4 161.2 155.4 161.1 159.1 156.6 178.4 176.0 170.2 137.0 114.4 113.1 110.5 110.1 109.3 108.8 104.4 104.3 102.5 102.0  99.2 100.1  99.7  98.3 107.5 123.5 136.1 139.6 140.1 138.7 139.0 138.2 136.6 135.2 134.1 132.7 119.7 109.2  99.7  98.7 102.9  92.2  84.1  86.1  82.6  90.2  91.0  88.7  82.6  79.7  74.7  79.4  88.8  87.8  95.1 101.4 102.8 100.7  98.1  85.9  69.7  71.1  72.7  73.1  64.2
-9999.0 -9999.0 -9999.0 -9999.0 -9999.0 -9999.0 -9999.0 -9999.0 -9999.0 -9999.0 -9999.0 -9999.0 -9999.0 -9999.0 -9999.0 -9999.0 -9999.0 -9999.0 -9999.0 -9999.0 -9999.0 -9999.0 -9999.0 -9999.0 -9999.0 -9999.0 -9999.0 -9999.0 -9999.0 -9999.0 -9999.0 -9999.0 -9999.0 -9999.0 -9999.0 -9999.0 -9999.0 -9999.0 -9999.0 -9999.0 -9999.0 -9999.0 -9999.0 -9999.0 -9999.0 -9999.0 -9999.0 -9999.0 -9999.0 -9999.0 -9999.0 -9999.0 -9999.0 -9999.0 -9999.0 -9999.0 -9999.0 -9999.0 -9999.0 -9999.0 -9999.0 -9999.0 -9999.0 -9999.0 -9999.0 -9999.0 -9999.0 -9999.0 -9999.0 -9999.0 -9999.0 -9999.0 -9999.0 -9999.0 -9999.0 -9999.0 -9999.0 -9999.0 -9999.0 -9999.0 -9999.0 -9999.0 -9999.0 -9999.0 -9999.0 -9999.0 -9999.0 -9999.0 -9999.0 -9999.0 -9999.0 -9999.0 -9999.0 -9999.0 -9999.0 -9999.0 -9999.0 -9999.0 -9999.0 -9999.0 -9999.0 -9999.0 -9999.0 -9999.0 -9999.0 -9999.0 -9999.0 -9999.0 -9999.0 -9999.0 -9999.0 -9999.0 -9999.0 -9999.0 -9999.0 -9999.0 -9999.0 -9999.0 -9999.0 -9999.0 -9999.0 -9999.0 -9999.0 -9999.0 -9999.0 -9999.0 -9999.0 -9999.0 -9999.0 -9999.0 -9999.0 -9999.0 1319.5 1350.7 1333.4 1291.4 1228.7 1121.3 993.2 879.1 819.0 791.0 745.9 687.1 622.6 539.9 558.2 597.5 597.8 650.1 759.2 911.3 1011.7 1061.0 1083.9 1033.7 968.9 944.5 926.8 846.3 786.4 779.8 714.4 683.2 799.8 887.4 869.0 843.1 803.4 741.9 679.5 626.6 605.3 565.8 534.0 535.0 492.9 481.1 513.0 509.6 457.3 449.5 475.3 498.7 510.1 491.1 466.5 441.5 426.2 415.8 406.7 395.2 415.9 432.5 391.0 337.2 349.4 392.2 400.0 406.8 424.5 447.5 477.0 490.0 475.5 484.6 472.3 479.7 513.4 559.8 540.2 482.8 492.1 557.9 588.8 596.6 657.9 735.1 778.3 800.1 849.0 898.5 944.2 987.0 1011.2 996.7 913.6 770.9 815.8 912.5 902.7 850.5 770.0 705.1 636.8 596.1 560.3 557.7 567.7 622.7 669.2 674.3 619.6 575.4 530.5 492.6 484.5 495.6 461.1 472.8 441.3 416.7 401.0 386.5 365.0 375.5 365.9 373.8 336.6 298.5 354.6 377.8 403.1 422.5 440.4 440.0 409.5 384.3 351.2 358.2 378.3 380.6 384.4 376.2 377.9 371.5 353.5 336.3 315.8 300.5 289.4 281.0 261.5 255.7 251.7 244.1 229.3 237.1 240.1 238.0 234.9 231.4 225.2 215.4 200.9 184.2 174.9 167.8 165.5 164.4 168.1 184.5 213.3 237.8 259.6 283.9 297.4 281.1 294.3 318.0 357.8 370.7 320.9 294.5 285.0 278.7 272.1 275.1 272.4 274.2 278.1 281.5 270.1 250.7 241.2 256.7 277.1 304.6 318.1 296.3 266.9 240.4 218.7 230.0 239.8 235.7 232.1 229.3 224.8 222.3 225.7 225.8 222.4 217.3 213.5 204.0 184.4 170.0 148.9 143.5 172.9 169.8 151.5 115.2 120.5 134.2 136.9 144.7 141.5 135.4 132.7 139.4 139.3 143.5 139.3 138.9 134.6 115.3  99.6  94.8  97.5 101.6  98.4  96.9 116.0 134.9 135.9 133.7 133.1 131.6 130.1 129.2 127.9 127.2 125.6 118.5  94.9  89.5 103.2 120.9 120.9 117.5 113.2 108.3  81.7  67.9  63.0  62.0  63.8  69.0  78.0  75.0  60.7  55.6  46.9  44.3  45.5  50.8  51.6
-9999.0 -9999.0 -9999.0 -9999.0 -9999.0 -9999.0 -9999.0 -9999.0 -9999.0 -9999.0 -9999.0 -9999.0 -9999.0 -9999.0 -9999.0 -9999.0 -9999.0 -9999.0 -9999.0 -9999.0 -9999.0 -9999.0 -9999.0 -9999.0 -9999.0 -9999.0 -9999.0 -9999.0 -9999.0 -9999.0 -9999.0 -9999.0 -9999.0 -9999.0 -9999.0 -9999.0 -9999.0 -9999.0 -9999.0 -9999.0 -9999.0 -9999.0 -9999.0 -9999.0 -9999.0 -9999.0 -9999.0 -9999.0 -9999.0 -9999.0 -9999.0 -9999.0 -9999.0 -9999.0 -9999.0 -9999.0 -9999.0 -9999.0 -9999.0 -9999.0 -9999.0 -9999.0 -9999.0 -9999.0 -9999.0 -9999.0 -9999.0 -9999.0 -9999.0 -9999.0 -9999.0 -9999.0 -9999.0 -9999.0 -9999.0 -9999.0 -9999.0 -9999.0 -9999.0 -9999.0 -9999.0 -9999.0 -9999.0 -9999.0 -9999.0 -9999.0 -9999.0 -9999.0 -9999.0 -9999.0 -9999.0 -9999.0 -9999.0 -9999.0 -9999.0 -9999.0 -9999.0 -9999.0 -9999.0 -9999.0 -9999.0 -9999.0 -9999.0 -9999.0 -9999.0 -9999.0 -9999.0 -9999.0 -9999.0 -9999.0 -9999.0 -9999.0 -9999.0 -9999.0 -9999.0 -9999.0 -9999.0 -9999.0 -9999.0 -9999.0 -9999.0 -9999.0 -9999.0 -9999.0 -9999.0 -9999.0 -9999.0 -9999.0 -9999.0 -9999.0 -9999.0 -9999.0 -9999.0 -9999.0 1261.5 1248.9 1216.6 1134.4 993.4 832.6 719.4 667.6 619.2 587.3 563.4 532.5 550.0 622.1 707.1 737.4 806.5 922.1 967.6 972.2 990.4 959.7 922.0 963.5 960.3 891.1 810.2 759.2 740.1 640.1 649.8 687.0 660.0 623.0 595.5 568.7 557.8 540.8 519.9 510.0 527.3 551.1 543.9 535.6 539.5 501.4 472.9 488.4 487.5 511.0 512.3 501.3 506.4 493.7 466.3 434.7 408.8 404.7 430.9 430.4 410.2 358.0 337.4 355.1 395.5 408.1 416.8 431.6 448.7 451.1 442.3 447.4 452.2 473.4 508.2 532.2 474.4 474.9 551.6 610.2 610.6 634.6 638.1 647.6 658.6 689.8 723.7 800.7 898.3 963.7 982.4 953.8 859.2 805.8 895.7 901.4 834.4 734.2 655.6 620.9 639.0 670.0 681.2 667.7 655.1 676.5 654.9 625.6 579.1 547.1 534.5 516.6 468.9 434.4 406.9 392.3 379.6 363.3 346.9 336.8 327.7 322.0 317.7 316.4 306.0 287.3 313.4 352.6 373.2 391.0 418.1 437.3 432.1 406.7 355.0 327.1 337.2 344.3 352.2 336.2 319.1 308.8 297.1 283.2 266.6 260.5 247.9 234.9 231.3 235.7 237.5 207.1 186.2 195.1 200.4 204.3 204.5 198.9 187.0 174.2 171.7 172.0 183.4 189.0 189.5 180.2 206.7 230.4 244.1 268.1 290.2 310.1 322.5 314.7 319.0 347.0 370.5 388.7 366.8 343.9 323.3 295.2 273.4 271.6 265.2 255.4 257.9 275.6 287.7 273.5 251.2 235.8 244.6 271.7 288.1 279.9 258.7 245.1 227.3 215.0 231.6 233.9 230.6 227.5 223.3 216.5 213.6 214.2 212.4 207.7 204.6 198.9 191.2 182.2 149.6 137.1 161.9 136.7 120.4 113.9 140.2 165.7 166.6 166.3 165.6 163.6 161.0 160.7 160.4 158.4 169.7 180.3 174.4 165.2 147.1 123.4 113.2  99.1  98.1  93.8  88.2  99.3 128.2 132.6 130.9 129.2 127.6 127.0 126.7 125.1 124.0 123.6 122.3 121.8 120.9 120.3 119.6 115.6 106.0  78.9  65.8  66.5  81.0  92.1  72.0  60.6  56.4  58.3  64.3  69.5  67.6  70.1  84.2  89.3  94.7
-9999.0 -9999.0 -9999.0 -9999.0 -9999.0 -9999.0 -9999.0 -9999.0 -9999.0 -9999.0 -9999.0 -9999.0 -9999.0 -9999.0 -9999.0 -9999.0 -9999.0 -9999.0 -9999.0 -9999.0 -9999.0 -9999.0 -9999.0 -9999.0 -9999.0 -9999.0 -9999.0 -9999.0 -9999.0 -9999.0 -9999.0 -9999.0 -9999.0 -9999.0 -9999.0 -9999.0 -9999.0 -9999.0 -9999.0 -9999.0 -9999.0 -9999.0 -9999.0 -9999.0 -9999.0 -9999.0 -9999.0 -9999.0 -9999.0 -9999.0 -9999.0 -9999.0 -9999.0 -9999.0 -9999.0 -9999.0 -9999.0 -9999.0 -9999.0 -9999.0 -9999.0 -9999.0 -9999.0 -9999.0 -9999.0 -9999.0 -9999.0 -9999.0 -9999.0 -9999.0 -9999.0 -9999.0 -9999.0 -9999.0 -9999.0 -9999.0 -9999.0 -9999.0 -9999.0 -9999.0 -9999.0 -9999.0 -9999.0 -9999.0 -9999.0 -9999.0 -9999.0 -9999.0 -9999.0 -9999.0 -9999.0 -9999.0 -9999.0 -9999.0 -9999.0 -9999.0 -9999.0 -9999.0 -9999.0 -9999.0 -9999.0 -9999.0 -9999.0 -9999.0 -9999.0 -9999.0 -9999.0 -9999.0 -9999.0 -9999.0 -9999.0 -9999.0 -9999.0 -9999.0 -9999.0 -9999.0 -9999.0 -9999.0 -9999.0 -9999.0 -9999.0 -9999.0 -9999.0 -9999.0 -9999.0 -9999.0 -9999.0 -9999.0 -9999.0 -9999.0 -9999.0 -9999.0 -9999.0 -9999.0 1114.4 1106.2 1076.1 1006.5 927.0 896.4 864.6 809.4 721.1 605.9 552.4 551.1 563.2 655.1 792.6 855.5 886.3 971.8 1026.6 978.0 939.2 920.5 872.2 870.3 861.1 815.8 781.0 827.6 847.2 747.4 604.1 597.5 628.0 609.2 660.5 699.7 728.8 639.0 576.4 583.4 539.5 504.8 507.1 522.3 542.8 524.8 526.4 543.3 536.8 532.4 532.0 532.1 496.5 470.5 450.9 423.0 410.6 416.1 430.9 440.6 436.2 407.8 373.3 345.9 364.5 399.0 398.8 407.7 416.1 423.5 433.5 449.5 461.3 462.7 459.1 456.2 452.8 512.0 570.1 580.3 576.7 601.2 598.2 590.4 638.5 716.1 763.0 829.7 900.7 954.6 973.2 954.9 899.0 879.4 913.9 906.8 852.4 787.5 766.4 775.9 777.8 743.0 693.8 657.5 630.8 659.4 631.1 557.4 507.9 494.1 495.9 472.7 432.0 395.8 400.6 418.4 418.0 407.2 399.9 399.9 400.5 397.3 389.3 369.4 345.6 317.6 282.0 330.7 389.7 405.7 408.5 426.6 435.4 414.2 370.2 319.0 304.0 309.1 314.9 309.6 286.3 272.8 261.7 236.9 206.1 211.9 195.9 188.8 188.3 191.0 197.8 183.2 190.6 192.3 188.6 186.2 183.1 178.3 180.0 194.0 210.9 215.7 227.0 231.4 230.2 218.5 227.9 234.3 244.9 256.7 265.8 276.9 292.0 305.9 321.6 335.3 347.3 361.7 383.2 374.7 336.0 309.2 302.5 312.1 306.2 278.4 250.7 267.2 293.1 294.1 278.2 256.9 237.2 232.3 253.5 256.8 246.8 239.8 231.7 213.8 215.3 222.5 226.6 223.2 215.9 208.6 201.0 195.9 192.4 185.8 181.7 174.6 159.0 153.4 141.3 128.9 132.6 118.3 129.1 122.9 122.2 152.5 170.3 170.8 170.6 169.5 168.3 165.5 165.8 171.1 183.1 186.4 182.2 180.2 178.6 174.9 169.9 158.0 152.5 136.0 104.7  85.5  94.3 120.1 119.5 110.5 111.4 110.0 104.2  95.0  92.5  90.0  96.2 103.0 102.6  95.3  86.2  81.6  69.3  65.9  81.0  72.4  85.0  73.2  64.7  62.2  70.0 100.4 113.1 122.9 130.9 132.7 126.5 132.0 145.5
-9999.0 -9999.0 -9999.0 -9999.0 -9999.0 -9999.0 -9999.0 -9999.0 -9999.0 -9999.0 -9999.0 -9999.0 -9999.0 -9999.0 -9999.0 -9999.0 -9999.0 -9999.0 -9999.0 -9999.0 -9999.0 -9999.0 -9999.0 -9999.0 -9999.0 -9999.0 -9999.0 -9999.0 -9999.0 -9999.0 -9999.0 -9999.0 -9999.0 -9999.0 -9999.0 -9999.0 -9999.0 -9999.0 -9999.0 -9999.0 -9999.0 -9999.0 -9999.0 -9999.0 -9999.0 -9999.0 -9999.0 -9999.0 -9999.0 -9999.0 -9999.0 -9999.0 -9999.0 -9999.0 -9999.0 -9999.0 -9999.0 -9999.0 -9999.0 -9999.0 -9999.0 -9999.0 -9999.0 -9999.0 -9999.0 -9999.0 -9999.0 -9999.0 -9999.0 -9999.0 -9999.0 -9999.0 -9999.0 -9999.0 -9999.0 -9999.0 -9999.0 -9999.0 -9999.0 -9999.0 -9999.0 -9999.0 -9999.0 -9999.0 -9999.0 -9999.0 -9999.0 -9999.0 -9999.0 -9999.0 -9999.0 -9999.0 -9999.0 -9999.0 -9999.0 -9999.0 -9999.0 -9999.0 -9999.0 -9999.0 -9999.0 -9999.0 -9999.0 -9999.0 -9999.0 -9999.0 -9999.0 -9999.0 -9999.0 -9999.0 -9999.0 -9999.0 -9999.0 -9999.0 -9999.0 -9999.0 -9999.0 -9999.0 -9999.0 -9999.0 -9999.0 -9999.0 -9999.0 -9999.0 -9999.0 -9999.0 -9999.0 -9999.0 -9999.0 -9999.0 -9999.0 -9999.0 -9999.0 -9999.0 1061.6 1049.7 1049.6 1067.2 1105.8 1144.9 1054.0 881.6 760.3 648.1 621.5 658.5 617.2 592.8 710.3 816.4 930.4 1026.6 1087.2 1043.1 984.5 993.0 953.9 839.7 742.5 683.7 660.9 754.1 817.3 741.0 609.9 631.8 757.5 748.1 764.9 849.5 859.3 737.8 650.3 727.8 691.0 611.7 531.5 481.9 500.5 534.4 559.1 560.0 552.8 526.6 522.2 521.8 497.5 472.0 448.3 431.8 445.8 446.6 452.3 461.3 443.6 432.6 432.4 373.0 350.8 364.3 373.7 383.3 393.2 398.6 403.7 411.3 420.6 422.2 432.1 458.4 496.4 535.2 541.0 542.9 570.2 599.5 575.3 578.1 663.8 747.0 807.8 856.9 911.5 961.8 995.3 1002.0 1007.7 988.8 989.7 977.3 928.1 862.6 797.4 706.5 648.6 610.4 584.3 561.0 538.0 559.9 547.6 497.3 474.5 461.8 456.6 449.8 433.7 452.8 481.7 494.7 504.9 478.0 449.9 436.2 428.6 429.1 408.3 394.5 385.2 349.9 283.3 312.3 367.2 370.7 380.1 398.2 410.6 408.0 384.4 357.4 324.4 292.7 277.4 254.3 245.3 242.7 229.3 207.5 192.1 195.4 200.3 225.7 233.3 205.6 197.7 212.1 237.0 242.5 236.7 231.1 229.9 228.8 230.8 232.8 234.1 235.7 236.6 235.9 235.8 229.5 235.5 239.7 245.5 260.8 266.3 272.7 279.8 291.5 307.6 329.2 361.9 385.4 395.8 385.0 367.6 357.4 353.0 354.8 338.6 300.1 262.9 244.4 249.9 263.9 269.8 268.6 250.6 226.6 229.0 229.0 224.3 225.7 228.5 219.0 209.4 203.0 202.5 203.2 197.8 194.7 191.9 187.4 181.3 168.7 147.7 131.5 124.6 125.9 121.7 121.1 123.8 135.7 164.8 156.8 126.3 126.5 167.3 171.8 172.5 172.9 173.7 175.3 187.4 193.5 192.0 189.5 187.2 183.8 180.7 177.0 171.8 167.4 163.3 157.9 149.6 118.4  90.2  84.9  83.2  82.0  81.7  80.5  80.8  83.7  87.8  84.3  79.1  74.4  72.7  73.3  73.2  73.8  84.3  84.5  81.0  71.7  71.2  71.2  90.2 111.3 132.3 149.8 170.9 192.1 204.5 195.3 181.0 170.8 167.3
-9999.0 -9999.0 -9999.0 -9999.0 -9999.0 -9999.0 -9999.0 -9999.0 -9999.0 -9999.0 -9999.0 -9999.0 -9999.0 -9999.0 -9999.0 -9999.0 -9999.0 -9999.0 -9999.0 -9999.0 -9999.0 -9999.0 -9999.0 -9999.0 -9999.0 -9999.0 -9999.0 -9999.0 -9999.0 -9999.0 -9999.0 -9999.0 -9999.0 -9999.0 -9999.0 -9999.0 -9999.0 -9999.0 -9999.0 -9999.0 -9999.0 -9999.0 -9999.0 -9999.0 -9999.0 -9999.0 -9999.0 -9999.0 -9999.0 -9999.0 -9999.0 -9999.0 -9999.0 -9999.0 -9999.0 -9999.0 -9999.0 -9999.0 -9999.0 -9999.0 -9999.0 -9999.0 -9999.0 -9999.0 -9999.0 -9999.0 -9999.0 -9999.0 -9999.0 -9999.0 -9999.0 -9999.0 -9999.0 -9999.0 -9999.0 -9999.0 -9999.0 -9999.0 -9999.0 -9999.0 -9999.0 -9999.0 -9999.0 -9999.0 -9999.0 -9999.0 -9999.0 -9999.0 -9999.0 -9999.0 -9999.0 -9999.0 -9999.0 -9999.0 -9999.0 -9999.0 -9999.0 -9999.0 -9999.0 -9999.0 -9999.0 -9999.0 -9999.0 -9999.0 -9999.0 -9999.0 -9999.0 -9999.0 -9999.0 -9999.0 -9999.0 -9999.0 -9999.0 -9999.0 -9999.0 -9999.0 -9999.0 -9999.0 -9999.0 -9999.0 -9999.0 -9999.0 -9999.0 -9999.0 -9999.0 -9999.0 -9999.0 -9999.0 -9999.0 -9999.0 -9999.0 -9999.0 -9999.0 -9999.0 1072.2 1104.1 1175.2 1226.0 1264.8 1257.0 1106.0 934.2 820.4 740.1 782.6 787.7 712.8 635.6 679.5 820.1 951.5 1040.8 1102.3 1099.5 1088.3 1086.9 1034.1 975.1 884.4 770.0 670.2 639.4 653.9 624.9 599.8 633.8 745.3 822.9 806.7 849.3 823.9 778.1 766.5 838.3 811.6 719.0 612.9 517.5 473.2 484.2 522.8 518.2 522.8 511.8 504.3 510.4 511.4 485.0 458.5 471.9 497.6 497.2 497.0 488.9 476.1 471.3 454.0 375.9 367.8 368.7 390.1 419.5 435.2 454.6 468.9 462.4 460.7 475.9 498.8 516.9 513.4 523.1 557.4 578.8 602.9 576.0 540.7 582.2 656.4 725.6 790.6 847.4 901.2 938.3 969.9 1005.4 1014.2 993.3 931.0 892.2 842.8 780.7 731.8 691.0 696.6 691.2 675.3 652.0 622.0 584.9 566.2 546.1 536.9 537.4 548.6 545.4 520.5 525.4 514.7 518.9 514.5 487.7 441.6 415.2 403.9 407.9 410.1 403.1 357.2 334.9 283.8 290.8 340.9 373.9 372.7 361.7 357.8 362.8 386.0 387.3 348.7 309.7 276.0 230.0 205.3 200.6 202.2 205.8 221.6 258.5 274.4 279.0 267.7 268.3 263.9 262.6 260.0 258.7 254.9 250.2 249.0 245.4 245.5 245.6 243.5 242.3 240.2 236.3 235.5 237.5 236.9 248.8 255.5 258.9 266.0 280.4 298.6 318.7 344.4 369.6 382.8 381.5 386.3 372.5 360.3 369.5 361.3 353.0 334.3 312.6 286.0 259.8 240.8 235.7 260.0 256.4 243.5 226.9 216.1 211.4 207.4 206.3 207.8 205.2 201.1 192.8 158.9 160.2 162.6 160.2 165.8 162.7 147.5 131.5 128.0 133.6 139.5 163.2 155.4 154.5 163.2 170.5 174.3 178.9 153.3 126.4 169.3 174.9 173.7 177.0 191.2 196.3 201.3 202.1 199.0 193.8 189.2 185.2 181.7 181.7 182.5 187.0 189.4 196.8 200.2 191.7 163.3 144.2 145.1 145.5 144.4 152.0 154.2 162.0 173.3 163.7 156.9 145.7 126.0 127.8 128.2 118.3 100.1  73.5  77.2 122.1 142.4 145.6 154.7 162.9 168.7 194.2 236.0 265.9 258.7 232.2 205.4 173.1 145.2
-9999.0 -9999.0 -9999.0 -9999.0 -9999.0 -9999.0 -9999.0 -9999.0 -9999.0 -9999.0 -9999.0 -9999.0 -9999.0 -9999.0 -9999.0 -9999.0 -9999.0 -9999.0 -9999.0 -9999.0 -9999.0 -9999.0 -9999.0 -9999.0 -9999.0 -9999.0 -9999.0 -9999.0 -9999.0 -9999.0 -9999.0 -9999.0 -9999.0 -9999.0 -9999.0 -9999.0 -9999.0 -9999.0 -9999.0 -9999.0 -9999.0 -9999.0 -9999.0 -9999.0 -9999.0 -9999.0 -9999.0 -9999.0 -9999.0 -9999.0 -9999.0 -9999.0 -9999.0 -9999.0 -9999.0 -9999.0 -9999.0 -9999.0 -9999.0 -9999.0 -9999.0 -9999.0 -9999.0 -9999.0 -9999.0 -9999.0 -9999.0 -9999.0 -9999.0 -9999.0 -9999.0 -9999.0 -9999.0 -9999.0 -9999.0 -9999.0 -9999.0 -9999.0 -9999.0 -9999.0 -9999.0 -9999.0 -9999.0 -9999.0 -9999.0 -9999.0 -9999.0 -9999.0 -9999.0 -9999.0 -9999.0 -9999.0 -9999.0 -9999.0 -9999.0 -9999.0 -9999.0 -9999.0 -9999.0 -9999.0 -9999.0 -9999.0 -9999.0 -9999.0 -9999.0 -9999.0 -9999.0 -9999.0 -9999.0 -9999.0 -9999.0 -9999.0 -9999.0 -9999.0 -9999.0 -9999.0 -9999.0 -9999.0 -9999.0 -9999.0 -9999.0 -9999.0 -9999.0 -9999.0 -9999.0 -9999.0 -9999.0 -9999.0 -9999.0 -9999.0 -9999.0 -9999.0 -9999.0 -9999.0 1110.4 1162.3 1247.7 1328.6 1346.1 1276.1 1151.4 1059.7 945.3 869.1 936.6 894.6 771.0 691.2 726.5 856.3 959.8 1026.0 1051.1 1059.2 1057.4 1010.5 962.5 926.9 879.5 815.8 766.3 673.9 644.9 713.3 665.4 623.8 733.3 831.3 880.1 860.2 843.9 883.4 922.1 966.4 891.5 758.8 635.0 546.8 488.1 460.7 467.0 464.7 472.9 476.7 479.7 486.9 494.0 494.9 496.1 523.2 541.8 529.8 503.6 505.7 496.5 463.4 405.4 363.5 382.6 376.1 410.3 431.7 453.5 480.6 498.1 495.4 501.5 522.5 535.6 515.2 497.5 518.3 545.7 551.3 557.8 520.0 531.0 589.8 649.5 721.3 776.6 816.5 829.3 816.9 842.8 909.1 924.7 883.3 829.3 830.0 819.0 804.4 813.7 828.9 810.6 763.7 737.7 744.6 744.8 732.6 696.0 632.9 584.5 577.7 583.7 580.5 552.3 515.8 491.6 487.3 461.2 461.1 425.3 405.5 383.7 391.9 409.3 386.7 335.1 321.7 285.9 268.1 317.6 366.0 355.3 328.6 330.6 345.8 348.4 357.3 318.4 284.0 264.5 217.5 207.5 225.8 250.5 273.4 294.5 302.7 319.0 299.8 288.9 302.5 305.9 303.7 301.5 280.8 275.9 277.8 272.1 262.8 276.6 276.6 256.3 246.6 243.7 237.8 248.6 254.4 245.8 259.4 274.6 283.9 291.0 310.8 335.6 339.2 340.7 353.6 369.2 355.8 364.0 356.0 326.8 339.6 332.2 320.7 307.3 286.9 267.7 252.5 239.5 228.9 246.3 249.4 238.4 221.2 213.2 211.4 210.6 207.3 199.1 194.4 168.5 153.9 141.3 139.1 142.8 139.4 136.9 134.1 136.5 145.2 161.1 175.4 176.1 177.6 176.6 176.3 177.1 183.5 192.3 183.7 141.1 129.1 171.6 177.9 180.4 197.7 209.4 208.2 219.9 222.6 223.1 219.3 212.6 208.6 208.3 209.0 215.4 225.4 232.3 226.1 208.0 197.1 201.5 206.9 202.7 185.4 189.2 184.4 159.5 168.7 180.5 163.8 177.0 173.7 144.1 129.7  96.3  78.1  76.4  95.8 135.1 137.7 151.8 166.0 184.8 206.1 216.0 225.1 252.1 239.7 219.9 201.4 190.7 173.9 158.5
